ply
                       format ascii 1.0
                       element vertex 49152
                       property float x
                       property float y
                       property float z
                       property uchar red
                       property uchar green
                       property uchar blue
                       property uchar alpha
                       end_header
16.538165 -12.085582 165.000000 0 0 0 0
17.694680 -12.451812 170.000000 0 0 0 0
18.781804 -12.744796 174.000000 0 0 0 0
19.899769 -13.037779 178.000000 0 0 0 0
20.701619 -13.111025 179.000000 128 128 0 0
21.511180 -13.184271 180.000000 128 128 0 0
22.205089 -13.184271 180.000000 128 128 0 0
23.026214 -13.257517 181.000000 128 128 0 0
23.855050 -13.330763 182.000000 128 128 0 0
24.691596 -13.404009 183.000000 128 128 0 0
25.535852 -13.477255 184.000000 128 128 0 0
26.245181 -13.477255 184.000000 128 128 0 0
27.101002 -13.550501 185.000000 128 128 0 0
27.964534 -13.623747 186.000000 128 128 0 0
28.835775 -13.696993 187.000000 128 128 0 0
29.556669 -13.696993 187.000000 128 128 0 0
30.439476 -13.770239 188.000000 128 128 0 0
31.329992 -13.843485 189.000000 128 128 0 0
32.058597 -13.843485 189.000000 128 128 0 0
32.960678 -13.916731 190.000000 128 128 0 0
34.225135 -14.136469 193.000000 0 0 0 0
34.969160 -14.136469 193.000000 0 0 0 0
35.713184 -14.136469 193.000000 0 0 0 0
36.457209 -14.136469 193.000000 0 0 0 0
37.201234 -14.136469 193.000000 0 0 0 0
37.945258 -14.136469 193.000000 0 0 0 0
38.889746 -14.209715 194.000000 0 0 0 0
39.637625 -14.209715 194.000000 0 0 0 0
40.593678 -14.282961 195.000000 0 0 0 0
41.345412 -14.282961 195.000000 0 0 0 0
42.097147 -14.282961 195.000000 0 0 0 0
43.068620 -14.356207 196.000000 0 0 0 0
43.824210 -14.356207 196.000000 0 0 0 0
44.807247 -14.429453 197.000000 0 0 0 0
45.797995 -14.502699 198.000000 0 0 0 0
46.561295 -14.502699 198.000000 0 0 0 0
47.563608 -14.575944 199.000000 0 0 0 0
48.573631 -14.649190 200.000000 0 0 0 0
49.344641 -14.649190 200.000000 0 0 0 0
50.366230 -14.722436 201.000000 0 0 0 0
51.395528 -14.795682 202.000000 0 0 0 0
52.174248 -14.795682 202.000000 0 0 0 0
53.215112 -14.868928 203.000000 0 0 0 0
54.263685 -14.942174 204.000000 0 0 0 0
55.050116 -14.942174 204.000000 0 0 0 0
55.836546 -14.942174 204.000000 0 0 0 0
56.900540 -15.015420 205.000000 0 0 0 0
57.972244 -15.088666 206.000000 0 0 0 0
58.195837 -14.942174 204.000000 128 128 0 0
59.271396 -15.015420 205.000000 128 128 0 0
60.061681 -15.015420 205.000000 128 128 0 0
61.148805 -15.088666 206.000000 128 128 0 0
61.942945 -15.088666 206.000000 128 128 0 0
62.737086 -15.088666 206.000000 128 128 0 0
63.839630 -15.161912 207.000000 128 128 0 0
64.637625 -15.161912 207.000000 128 128 0 0
65.435621 -15.161912 207.000000 128 128 0 0
66.553585 -15.235158 208.000000 128 128 0 0
67.355436 -15.235158 208.000000 128 128 0 0
68.157286 -15.235158 208.000000 128 128 0 0
69.290671 -15.308404 209.000000 128 128 0 0
70.096376 -15.308404 209.000000 128 128 0 0
70.902082 -15.308404 209.000000 128 128 0 0
72.050887 -15.381650 210.000000 128 128 0 0
72.860447 -15.381650 210.000000 128 128 0 0
73.670008 -15.381650 210.000000 128 128 0 0
74.834233 -15.454896 211.000000 128 128 0 0
75.647648 -15.454896 211.000000 128 128 0 0
76.461064 -15.454896 211.000000 0 0 0 0
77.274480 -15.454896 211.000000 0 0 0 0
-108.558211 -12.212799 176.000000 0 0 0 0
-110.331534 -12.490362 180.000000 0 0 0 0
-109.637625 -12.490362 180.000000 0 0 0 0
-108.943716 -12.490362 180.000000 0 0 0 0
-107.648419 -12.420971 179.000000 0 0 0 0
-106.360833 -12.351581 178.000000 0 0 0 0
-93.801079 -10.963763 158.000000 0 128 0 0
-93.191981 -10.963763 158.000000 0 128 0 0
-92.582884 -10.963763 158.000000 0 128 0 0
-91.973786 -10.963763 158.000000 0 128 0 0
-91.364688 -10.963763 158.000000 0 128 0 0
-90.755590 -10.963763 158.000000 0 128 0 0
-90.146492 -10.963763 158.000000 0 128 0 0
-89.537394 -10.963763 158.000000 0 128 0 0
-88.928296 -10.963763 158.000000 0 128 0 0
-100.616808 -12.490362 180.000000 0 0 128 0
-99.922899 -12.490362 180.000000 0 0 128 0
-99.228990 -12.490362 180.000000 0 0 128 0
-97.440247 -12.351581 178.000000 0 0 0 0
-96.754048 -12.351581 178.000000 0 0 0 0
-96.067849 -12.351581 178.000000 0 0 0 0
-95.381650 -12.351581 178.000000 0 0 0 0
-94.695451 -12.351581 178.000000 0 0 0 0
-94.009252 -12.351581 178.000000 0 0 0 0
-93.323053 -12.351581 178.000000 0 0 0 0
-92.116423 -12.282190 177.000000 0 0 0 0
-91.434079 -12.282190 177.000000 0 0 0 0
-90.751735 -12.282190 177.000000 0 0 0 0
-90.069391 -12.282190 177.000000 0 0 0 0
-89.387047 -12.282190 177.000000 0 0 0 0
-88.203547 -12.212799 176.000000 0 0 0 0
-87.525058 -12.212799 176.000000 0 0 0 0
-86.846569 -12.212799 176.000000 0 0 0 0
-86.168080 -12.212799 176.000000 0 0 0 0
-85.489591 -12.212799 176.000000 0 0 0 0
-84.811103 -12.212799 176.000000 0 0 0 0
-84.132614 -12.212799 176.000000 0 0 0 0
-82.979954 -12.143408 175.000000 0 0 0 0
-82.305320 -12.143408 175.000000 0 0 0 0
-81.630686 -12.143408 175.000000 0 0 0 0
-80.956052 -12.143408 175.000000 0 0 0 0
-80.281419 -12.143408 175.000000 0 0 0 0
-79.151889 -12.074017 174.000000 0 0 0 0
-78.481110 -12.074017 174.000000 0 0 0 0
-78.257517 -12.143408 175.000000 0 0 0 0
-77.582884 -12.143408 175.000000 0 0 0 0
-76.908250 -12.143408 175.000000 0 0 0 0
-76.233616 -12.143408 175.000000 0 0 0 0
-75.127217 -12.074017 174.000000 0 0 0 0
-74.456438 -12.074017 174.000000 0 0 0 0
-73.785659 -12.074017 174.000000 0 0 0 0
-73.114880 -12.074017 174.000000 0 0 0 0
-72.444102 -12.074017 174.000000 0 0 0 0
-71.773323 -12.074017 174.000000 0 0 0 0
-71.102544 -12.074017 174.000000 0 0 0 0
-70.431766 -12.074017 174.000000 0 0 0 0
-69.760987 -12.074017 174.000000 0 0 0 0
-69.090208 -12.074017 174.000000 0 0 0 0
-68.026214 -12.004626 173.000000 0 0 0 0
-67.359291 -12.004626 173.000000 0 0 0 0
-67.077872 -12.074017 174.000000 0 0 0 0
-66.407093 -12.074017 174.000000 0 0 0 0
-66.114109 -12.143408 175.000000 0 0 0 0
-65.439476 -12.143408 175.000000 0 0 0 0
-64.764842 -12.143408 175.000000 0 0 0 0
-64.090208 -12.143408 175.000000 0 0 0 0
-60.154202 -11.518890 166.000000 0 0 128 0
-59.514264 -11.518890 166.000000 0 0 128 0
-58.519661 -11.449499 165.000000 0 0 128 0
-57.883577 -11.449499 165.000000 0 0 128 0
-57.247494 -11.449499 165.000000 0 0 128 0
-56.268311 -11.380108 164.000000 0 0 128 0
-55.636083 -11.380108 164.000000 0 0 128 0
-55.003855 -11.380108 164.000000 0 0 128 0
-54.040093 -11.310717 163.000000 0 0 128 0
-53.411719 -11.310717 163.000000 0 0 128 0
-58.288358 -12.490362 180.000000 128 0 0 0
-57.594449 -12.490362 180.000000 0 0 0 0
-56.900540 -12.490362 180.000000 0 0 0 0
-56.518890 -12.559753 181.000000 0 0 0 0
-56.437934 -12.698535 183.000000 0 0 0 0
-55.732460 -12.698535 183.000000 0 0 0 0
-55.327679 -12.767926 184.000000 0 0 0 0
-54.618350 -12.767926 184.000000 0 0 0 0
-53.909021 -12.767926 184.000000 0 0 0 0
-53.199692 -12.767926 184.000000 0 0 0 0
-52.205089 -12.698535 183.000000 0 0 0 0
-51.499614 -12.698535 183.000000 0 0 0 0
-50.516577 -12.629144 182.000000 0 0 0 0
-49.814958 -12.629144 182.000000 0 0 0 0
-49.113338 -12.629144 182.000000 0 0 0 0
-48.411719 -12.629144 182.000000 0 0 0 0
-47.710100 -12.629144 182.000000 0 0 0 0
-47.008481 -12.629144 182.000000 0 0 0 0
-46.561295 -12.698535 183.000000 0 0 0 0
-45.855821 -12.698535 183.000000 0 0 0 0
-45.150347 -12.698535 183.000000 0 0 0 0
-44.202005 -12.629144 182.000000 0 0 0 0
-43.261372 -12.559753 181.000000 0 0 0 0
-42.563608 -12.559753 181.000000 0 0 0 0
-41.865844 -12.559753 181.000000 0 0 0 0
-40.940632 -12.490362 180.000000 0 0 0 0
-39.575944 -12.282190 177.000000 0 0 0 0
-38.673863 -12.212799 176.000000 0 0 0 0
-37.995374 -12.212799 176.000000 0 0 0 0
-38.377024 -12.559753 181.000000 128 0 0 0
-37.679260 -12.559753 181.000000 128 0 0 0
-36.981496 -12.559753 181.000000 128 0 0 0
-36.283732 -12.559753 181.000000 128 0 0 0
-35.585968 -12.559753 181.000000 128 0 0 0
-34.888204 -12.559753 181.000000 128 0 0 0
-34.190439 -12.559753 181.000000 128 0 0 0
-33.492675 -12.559753 181.000000 128 0 0 0
-32.794911 -12.559753 181.000000 128 0 0 0
-32.097147 -12.559753 181.000000 128 0 0 0
-31.399383 -12.559753 181.000000 128 0 0 0
-30.701619 -12.559753 181.000000 128 0 0 0
-30.003855 -12.559753 181.000000 128 0 0 0
-29.468003 -12.629144 182.000000 128 0 0 0
-28.766384 -12.629144 182.000000 128 0 0 0
-28.064765 -12.629144 182.000000 128 0 0 0
-27.363146 -12.629144 182.000000 128 0 0 0
-26.661527 -12.629144 182.000000 128 0 0 0
-25.959907 -12.629144 182.000000 128 0 0 0
-25.258288 -12.629144 182.000000 128 0 0 0
-24.556669 -12.629144 182.000000 128 0 0 0
-23.855050 -12.629144 182.000000 128 0 0 0
-23.153431 -12.629144 182.000000 128 0 0 0
-22.451812 -12.629144 182.000000 128 0 0 0
-21.750193 -12.629144 182.000000 128 0 0 0
-21.048574 -12.629144 182.000000 128 0 0 0
-20.346955 -12.629144 182.000000 128 0 0 0
-19.645335 -12.629144 182.000000 128 0 0 0
-18.943716 -12.629144 182.000000 128 0 0 0
-18.242097 -12.629144 182.000000 128 0 0 0
-17.540478 -12.629144 182.000000 128 0 0 0
-16.838859 -12.629144 182.000000 128 0 0 0
-16.137240 -12.629144 182.000000 128 0 0 0
-15.435621 -12.629144 182.000000 128 0 0 0
-14.734002 -12.629144 182.000000 128 0 0 0
-14.032382 -12.629144 182.000000 128 0 0 0
-13.330763 -12.629144 182.000000 128 0 0 0
-12.629144 -12.629144 182.000000 128 0 0 0
-11.927525 -12.629144 182.000000 128 0 0 0
-11.225906 -12.629144 182.000000 128 0 0 0
-10.582113 -12.698535 183.000000 128 0 0 0
-9.876638 -12.698535 183.000000 128 0 0 0
-9.171164 -12.698535 183.000000 128 0 0 0
-8.465690 -12.698535 183.000000 128 0 0 0
-7.378566 -12.074017 174.000000 0 0 0 0
-6.515035 -11.727062 169.000000 0 0 0 0
-5.690054 -11.380108 164.000000 0 0 0 0
-4.996145 -11.241326 162.000000 0 0 0 0
-4.317656 -11.102544 160.000000 0 0 0 0
-3.700848 -11.102544 160.000000 0 0 0 0
-3.045490 -10.963763 158.000000 0 0 0 0
-2.405551 -10.824981 156.000000 0 0 0 0
-1.804163 -10.824981 156.000000 0 0 0 0
-1.210486 -10.894372 157.000000 0 0 0 0
-0.605243 -10.894372 157.000000 0 0 0 0
0.000000 -10.894372 157.000000 0 0 0 0
0.605243 -10.894372 157.000000 0 0 0 0
1.202776 -10.824981 156.000000 0 0 0 0
1.804163 -10.824981 156.000000 0 0 0 0
2.405551 -10.824981 156.000000 0 0 0 0
3.006939 -10.824981 156.000000 0 0 0 0
3.585197 -10.755590 155.000000 0 0 0 0
4.182729 -10.755590 155.000000 0 0 0 0
4.780262 -10.755590 155.000000 0 0 0 0
5.377795 -10.755590 155.000000 0 0 0 0
6.013878 -10.824981 156.000000 0 0 0 0
6.615266 -10.824981 156.000000 0 0 0 0
7.216654 -10.824981 156.000000 0 0 0 0
7.868157 -10.894372 157.000000 0 0 0 0
8.419429 -10.824981 156.000000 0 0 0 0
9.020817 -10.824981 156.000000 0 0 0 0
9.622205 -10.824981 156.000000 0 0 0 0
10.354665 -10.963763 158.000000 0 0 0 0
11.102544 -11.102544 160.000000 0 0 0 0
11.719352 -11.102544 160.000000 0 0 0 0
12.336160 -11.102544 160.000000 0 0 0 0
12.872012 -11.033153 159.000000 0 0 0 0
13.484965 -11.033153 159.000000 0 0 0 0
14.186584 -11.102544 160.000000 0 0 0 0
14.895914 -11.171935 161.000000 0 0 0 0
15.709329 -11.310717 163.000000 0 0 0 0
16.538165 -11.449499 165.000000 0 0 0 0
17.694680 -11.796453 170.000000 0 0 0 0
18.781804 -12.074017 174.000000 0 0 0 0
19.899769 -12.351581 178.000000 0 0 0 0
20.701619 -12.420971 179.000000 128 128 0 0
21.511180 -12.490362 180.000000 128 128 0 0
22.205089 -12.490362 180.000000 128 128 0 0
23.026214 -12.559753 181.000000 128 128 0 0
23.855050 -12.629144 182.000000 128 128 0 0
24.691596 -12.698535 183.000000 128 128 0 0
25.535852 -12.767926 184.000000 128 128 0 0
26.245181 -12.767926 184.000000 128 128 0 0
27.101002 -12.837317 185.000000 128 128 0 0
27.964534 -12.906708 186.000000 128 128 0 0
28.835775 -12.976099 187.000000 128 128 0 0
29.556669 -12.976099 187.000000 128 128 0 0
30.439476 -13.045490 188.000000 128 128 0 0
31.329992 -13.114880 189.000000 128 128 0 0
32.058597 -13.114880 189.000000 128 128 0 0
32.960678 -13.184271 190.000000 128 128 0 0
34.225135 -13.392444 193.000000 0 0 0 0
34.969160 -13.392444 193.000000 0 0 0 0
35.713184 -13.392444 193.000000 0 0 0 0
36.457209 -13.392444 193.000000 0 0 0 0
37.393986 -13.461835 194.000000 0 0 0 0
38.141866 -13.461835 194.000000 0 0 0 0
38.889746 -13.461835 194.000000 0 0 0 0
39.841943 -13.531226 195.000000 0 0 0 0
40.593678 -13.531226 195.000000 0 0 0 0
41.345412 -13.531226 195.000000 0 0 0 0
42.097147 -13.531226 195.000000 0 0 0 0
43.068620 -13.600617 196.000000 0 0 0 0
43.824210 -13.600617 196.000000 0 0 0 0
44.807247 -13.670008 197.000000 0 0 0 0
45.797995 -13.739399 198.000000 0 0 0 0
46.561295 -13.739399 198.000000 0 0 0 0
47.563608 -13.808790 199.000000 0 0 0 0
48.573631 -13.878180 200.000000 0 0 0 0
49.591365 -13.947571 201.000000 0 0 0 0
50.366230 -13.947571 201.000000 0 0 0 0
51.395528 -14.016962 202.000000 0 0 0 0
52.432537 -14.086353 203.000000 0 0 0 0
53.215112 -14.086353 203.000000 0 0 0 0
54.263685 -14.155744 204.000000 0 0 0 0
55.050116 -14.155744 204.000000 0 0 0 0
56.110254 -14.225135 205.000000 0 0 0 0
56.900540 -14.225135 205.000000 0 0 0 0
57.972244 -14.294526 206.000000 0 0 0 0
58.195837 -14.155744 204.000000 128 128 0 0
59.271396 -14.225135 205.000000 128 128 0 0
60.061681 -14.225135 205.000000 128 128 0 0
61.148805 -14.294526 206.000000 128 128 0 0
61.942945 -14.294526 206.000000 128 128 0 0
62.737086 -14.294526 206.000000 128 128 0 0
63.839630 -14.363917 207.000000 128 128 0 0
64.637625 -14.363917 207.000000 128 128 0 0
65.435621 -14.363917 207.000000 128 128 0 0
66.553585 -14.433308 208.000000 128 128 0 0
67.355436 -14.433308 208.000000 128 128 0 0
68.157286 -14.433308 208.000000 128 128 0 0
69.290671 -14.502699 209.000000 128 128 0 0
70.096376 -14.502699 209.000000 128 128 0 0
70.902082 -14.502699 209.000000 128 128 0 0
72.050887 -14.572089 210.000000 128 128 0 0
72.860447 -14.572089 210.000000 128 128 0 0
73.670008 -14.572089 210.000000 128 128 0 0
74.834233 -14.641480 211.000000 128 128 0 0
75.647648 -14.641480 211.000000 128 128 0 0
76.461064 -14.641480 211.000000 0 0 0 0
77.640709 -14.710871 212.000000 0 0 0 0
-108.558211 -11.534310 176.000000 0 0 0 0
-110.331534 -11.796453 180.000000 0 0 0 0
-109.637625 -11.796453 180.000000 0 0 0 0
-108.943716 -11.796453 180.000000 0 0 0 0
-107.648419 -11.730918 179.000000 0 0 0 0
-106.360833 -11.665382 178.000000 0 0 0 0
-93.801079 -10.354665 158.000000 0 128 0 0
-93.191981 -10.354665 158.000000 0 128 0 0
-92.582884 -10.354665 158.000000 0 128 0 0
-91.973786 -10.354665 158.000000 0 128 0 0
-91.364688 -10.354665 158.000000 0 128 0 0
-90.755590 -10.354665 158.000000 0 128 0 0
-90.146492 -10.354665 158.000000 0 128 0 0
-89.537394 -10.354665 158.000000 0 128 0 0
-88.928296 -10.354665 158.000000 0 128 0 0
-100.616808 -11.796453 180.000000 0 0 128 0
-99.922899 -11.796453 180.000000 0 0 128 0
-99.228990 -11.796453 180.000000 0 0 128 0
-97.440247 -11.665382 178.000000 0 0 0 0
-96.754048 -11.665382 178.000000 0 0 0 0
-96.067849 -11.665382 178.000000 0 0 0 0
-95.381650 -11.665382 178.000000 0 0 0 0
-94.695451 -11.665382 178.000000 0 0 0 0
-94.009252 -11.665382 178.000000 0 0 0 0
-93.323053 -11.665382 178.000000 0 0 0 0
-92.636854 -11.665382 178.000000 0 0 0 0
-91.950655 -11.665382 178.000000 0 0 0 0
-90.751735 -11.599846 177.000000 0 0 0 0
-90.069391 -11.599846 177.000000 0 0 0 0
-89.387047 -11.599846 177.000000 0 0 0 0
-88.704703 -11.599846 177.000000 0 0 0 0
-88.022359 -11.599846 177.000000 0 0 0 0
-87.340015 -11.599846 177.000000 0 0 0 0
-86.657672 -11.599846 177.000000 0 0 0 0
-85.975328 -11.599846 177.000000 0 0 0 0
-84.811103 -11.534310 176.000000 0 0 0 0
-84.132614 -11.534310 176.000000 0 0 0 0
-83.454125 -11.534310 176.000000 0 0 0 0
-82.775636 -11.534310 176.000000 0 0 0 0
-82.097147 -11.534310 176.000000 0 0 0 0
-80.956052 -11.468774 175.000000 0 0 0 0
-80.281419 -11.468774 175.000000 0 0 0 0
-79.606785 -11.468774 175.000000 0 0 0 0
-78.932151 -11.468774 175.000000 0 0 0 0
-78.704703 -11.534310 176.000000 0 0 0 0
-78.026214 -11.534310 176.000000 0 0 0 0
-76.908250 -11.468774 175.000000 0 0 0 0
-76.233616 -11.468774 175.000000 0 0 0 0
-75.558982 -11.468774 175.000000 0 0 0 0
-74.884348 -11.468774 175.000000 0 0 0 0
-73.785659 -11.403238 174.000000 0 0 0 0
-73.114880 -11.403238 174.000000 0 0 0 0
-72.860447 -11.468774 175.000000 0 0 0 0
-72.185813 -11.468774 175.000000 0 0 0 0
-71.511180 -11.468774 175.000000 0 0 0 0
-70.836546 -11.468774 175.000000 0 0 0 0
-70.161912 -11.468774 175.000000 0 0 0 0
-69.090208 -11.403238 174.000000 0 0 0 0
-68.419429 -11.403238 174.000000 0 0 0 0
-67.748651 -11.403238 174.000000 0 0 0 0
-67.077872 -11.403238 174.000000 0 0 0 0
-66.788743 -11.468774 175.000000 0 0 0 0
-66.114109 -11.468774 175.000000 0 0 0 0
-65.439476 -11.468774 175.000000 0 0 0 0
-64.764842 -11.468774 175.000000 0 0 0 0
-64.456438 -11.534310 176.000000 0 0 0 0
-63.777949 -11.534310 176.000000 0 0 0 0
-59.514264 -10.878951 166.000000 0 0 128 0
-58.519661 -10.813416 165.000000 0 0 128 0
-57.883577 -10.813416 165.000000 0 0 128 0
-57.247494 -10.813416 165.000000 0 0 128 0
-56.268311 -10.747880 164.000000 0 0 128 0
-55.636083 -10.747880 164.000000 0 0 128 0
-55.003855 -10.747880 164.000000 0 0 128 0
-59.676176 -11.796453 180.000000 128 0 0 0
-58.982267 -11.796453 180.000000 128 0 0 0
-58.288358 -11.796453 180.000000 0 0 0 0
-57.594449 -11.796453 180.000000 0 0 0 0
-57.216654 -11.861989 181.000000 0 0 0 0
-56.831149 -11.927525 182.000000 0 0 0 0
-56.437934 -11.993061 183.000000 0 0 0 0
-56.037008 -12.058597 184.000000 0 0 0 0
-55.327679 -12.058597 184.000000 0 0 0 0
-54.618350 -12.058597 184.000000 0 0 0 0
-54.202005 -12.124133 185.000000 0 0 0 0
-53.488820 -12.124133 185.000000 0 0 0 0
-52.775636 -12.124133 185.000000 0 0 0 0
-52.062452 -12.124133 185.000000 0 0 0 0
-51.071704 -12.058597 184.000000 0 0 0 0
-50.362375 -12.058597 184.000000 0 0 0 0
-49.383192 -11.993061 183.000000 0 0 0 0
-48.943716 -12.058597 184.000000 0 0 0 0
-48.234387 -12.058597 184.000000 0 0 0 0
-47.266769 -11.993061 183.000000 0 0 0 0
-46.561295 -11.993061 183.000000 0 0 0 0
-45.605243 -11.927525 182.000000 0 0 0 0
-45.150347 -11.993061 183.000000 0 0 0 0
-44.444873 -11.993061 183.000000 0 0 0 0
-43.500386 -11.927525 182.000000 0 0 0 0
-42.798766 -11.927525 182.000000 0 0 0 0
-41.865844 -11.861989 181.000000 0 0 0 0
-40.940632 -11.796453 180.000000 0 0 0 0
-39.799537 -11.665382 178.000000 0 0 0 0
-38.673863 -11.534310 176.000000 0 0 0 0
-37.995374 -11.534310 176.000000 0 0 0 0
-38.589052 -11.927525 182.000000 128 0 0 0
-37.887433 -11.927525 182.000000 128 0 0 0
-37.185813 -11.927525 182.000000 128 0 0 0
-36.484194 -11.927525 182.000000 128 0 0 0
-35.782575 -11.927525 182.000000 128 0 0 0
-35.080956 -11.927525 182.000000 128 0 0 0
-34.379337 -11.927525 182.000000 128 0 0 0
-33.677718 -11.927525 182.000000 128 0 0 0
-32.976099 -11.927525 182.000000 128 0 0 0
-32.274480 -11.927525 182.000000 128 0 0 0
-31.572860 -11.927525 182.000000 128 0 0 0
-30.871241 -11.927525 182.000000 128 0 0 0
-30.169622 -11.927525 182.000000 128 0 0 0
-29.468003 -11.927525 182.000000 128 0 0 0
-28.766384 -11.927525 182.000000 128 0 0 0
-28.064765 -11.927525 182.000000 128 0 0 0
-27.363146 -11.927525 182.000000 128 0 0 0
-26.661527 -11.927525 182.000000 128 0 0 0
-25.959907 -11.927525 182.000000 128 0 0 0
-25.258288 -11.927525 182.000000 128 0 0 0
-24.556669 -11.927525 182.000000 128 0 0 0
-23.855050 -11.927525 182.000000 128 0 0 0
-23.153431 -11.927525 182.000000 128 0 0 0
-22.451812 -11.927525 182.000000 128 0 0 0
-21.750193 -11.927525 182.000000 128 0 0 0
-21.164225 -11.993061 183.000000 128 0 0 0
-20.458751 -11.993061 183.000000 128 0 0 0
-19.753277 -11.993061 183.000000 128 0 0 0
-19.047803 -11.993061 183.000000 128 0 0 0
-18.342328 -11.993061 183.000000 128 0 0 0
-17.636854 -11.993061 183.000000 128 0 0 0
-16.931380 -11.993061 183.000000 128 0 0 0
-16.225906 -11.993061 183.000000 128 0 0 0
-15.520432 -11.993061 183.000000 128 0 0 0
-14.814958 -11.993061 183.000000 128 0 0 0
-14.109483 -11.993061 183.000000 128 0 0 0
-13.404009 -11.993061 183.000000 128 0 0 0
-12.698535 -11.993061 183.000000 128 0 0 0
-11.993061 -11.993061 183.000000 128 0 0 0
-11.287587 -11.993061 183.000000 128 0 0 0
-10.582113 -11.993061 183.000000 128 0 0 0
-9.876638 -11.993061 183.000000 128 0 0 0
-9.171164 -11.993061 183.000000 128 0 0 0
-8.465690 -11.993061 183.000000 128 0 0 0
-7.760216 -11.993061 183.000000 128 0 0 0
-6.553585 -11.141095 170.000000 0 0 0 0
-5.690054 -10.747880 164.000000 0 0 0 0
-4.996145 -10.616808 162.000000 0 0 0 0
-4.317656 -10.485736 160.000000 0 0 0 0
-3.700848 -10.485736 160.000000 0 0 0 0
-3.045490 -10.354665 158.000000 0 0 0 0
-2.405551 -10.223593 156.000000 0 0 0 0
-1.804163 -10.223593 156.000000 0 0 0 0
-1.202776 -10.223593 156.000000 0 0 0 0
-0.601388 -10.223593 156.000000 0 0 0 0
0.000000 -10.223593 156.000000 0 0 0 0
0.601388 -10.223593 156.000000 0 0 0 0
1.202776 -10.223593 156.000000 0 0 0 0
1.804163 -10.223593 156.000000 0 0 0 0
2.390131 -10.158057 155.000000 0 0 0 0
2.987664 -10.158057 155.000000 0 0 0 0
3.585197 -10.158057 155.000000 0 0 0 0
4.155744 -10.092521 154.000000 0 0 0 0
4.749422 -10.092521 154.000000 0 0 0 0
5.377795 -10.158057 155.000000 0 0 0 0
5.975328 -10.158057 155.000000 0 0 0 0
6.615266 -10.223593 156.000000 0 0 0 0
7.216654 -10.223593 156.000000 0 0 0 0
7.818042 -10.223593 156.000000 0 0 0 0
8.419429 -10.223593 156.000000 0 0 0 0
8.962992 -10.158057 155.000000 0 0 0 0
9.622205 -10.223593 156.000000 0 0 0 0
10.354665 -10.354665 158.000000 0 0 0 0
11.102544 -10.485736 160.000000 0 0 0 0
11.719352 -10.485736 160.000000 0 0 0 0
12.413261 -10.551272 161.000000 0 0 0 0
12.952968 -10.485736 160.000000 0 0 0 0
13.569776 -10.485736 160.000000 0 0 0 0
14.186584 -10.485736 160.000000 0 0 0 0
14.895914 -10.551272 161.000000 0 0 0 0
15.709329 -10.682344 163.000000 0 0 0 0
16.538165 -10.813416 165.000000 0 0 0 0
17.694680 -11.141095 170.000000 0 0 0 0
18.889746 -11.468774 175.000000 0 0 0 0
19.899769 -11.665382 178.000000 0 0 0 0
20.701619 -11.730918 179.000000 128 128 0 0
21.391673 -11.730918 179.000000 128 128 0 0
22.205089 -11.796453 180.000000 128 128 0 0
23.026214 -11.861989 181.000000 128 128 0 0
23.855050 -11.927525 182.000000 128 128 0 0
24.691596 -11.993061 183.000000 128 128 0 0
25.535852 -12.058597 184.000000 128 128 0 0
26.245181 -12.058597 184.000000 128 128 0 0
27.101002 -12.124133 185.000000 128 128 0 0
27.964534 -12.189668 186.000000 128 128 0 0
28.681573 -12.189668 186.000000 128 128 0 0
29.556669 -12.255204 187.000000 128 128 0 0
30.439476 -12.320740 188.000000 128 128 0 0
31.329992 -12.386276 189.000000 128 128 0 0
32.058597 -12.386276 189.000000 128 128 0 0
32.960678 -12.451812 190.000000 128 128 0 0
34.225135 -12.648419 193.000000 0 0 0 0
35.150347 -12.713955 194.000000 0 0 0 0
35.898227 -12.713955 194.000000 0 0 0 0
36.646106 -12.713955 194.000000 0 0 0 0
37.393986 -12.713955 194.000000 0 0 0 0
38.141866 -12.713955 194.000000 0 0 0 0
39.090208 -12.779491 195.000000 0 0 0 0
39.841943 -12.779491 195.000000 0 0 0 0
40.593678 -12.779491 195.000000 0 0 0 0
41.345412 -12.779491 195.000000 0 0 0 0
42.313030 -12.845027 196.000000 0 0 0 0
43.068620 -12.845027 196.000000 0 0 0 0
44.047803 -12.910563 197.000000 0 0 0 0
44.807247 -12.910563 197.000000 0 0 0 0
45.797995 -12.976099 198.000000 0 0 0 0
46.561295 -12.976099 198.000000 0 0 0 0
47.563608 -13.041635 199.000000 0 0 0 0
48.573631 -13.107170 200.000000 0 0 0 0
49.591365 -13.172706 201.000000 0 0 0 0
50.616808 -13.238242 202.000000 0 0 0 0
51.395528 -13.238242 202.000000 0 0 0 0
52.432537 -13.303778 203.000000 0 0 0 0
53.477255 -13.369314 204.000000 0 0 0 0
54.263685 -13.369314 204.000000 0 0 0 0
55.319969 -13.434850 205.000000 0 0 0 0
56.110254 -13.434850 205.000000 0 0 0 0
57.178103 -13.500386 206.000000 0 0 0 0
57.972244 -13.500386 206.000000 0 0 0 0
58.195837 -13.369314 204.000000 128 128 0 0
59.271396 -13.434850 205.000000 128 128 0 0
60.061681 -13.434850 205.000000 128 128 0 0
61.148805 -13.500386 206.000000 128 128 0 0
61.942945 -13.500386 206.000000 128 128 0 0
62.737086 -13.500386 206.000000 128 128 0 0
63.839630 -13.565921 207.000000 128 128 0 0
64.637625 -13.565921 207.000000 128 128 0 0
65.435621 -13.565921 207.000000 128 128 0 0
66.553585 -13.631457 208.000000 128 128 0 0
67.355436 -13.631457 208.000000 128 128 0 0
68.157286 -13.631457 208.000000 128 128 0 0
69.290671 -13.696993 209.000000 128 128 0 0
70.096376 -13.696993 209.000000 128 128 0 0
70.902082 -13.696993 209.000000 128 128 0 0
72.050887 -13.762529 210.000000 128 128 0 0
72.860447 -13.762529 210.000000 128 128 0 0
73.670008 -13.762529 210.000000 128 128 0 0
74.834233 -13.828065 211.000000 128 128 0 0
75.647648 -13.828065 211.000000 128 128 0 0
76.461064 -13.828065 211.000000 0 0 0 0
77.640709 -13.893601 212.000000 0 0 0 0
-109.175019 -10.917502 177.000000 0 0 0 0
-110.331534 -11.102544 180.000000 0 0 0 0
-109.637625 -11.102544 180.000000 0 0 0 0
-108.943716 -11.102544 180.000000 0 0 0 0
-107.648419 -11.040864 179.000000 0 0 0 0
-106.360833 -10.979183 178.000000 0 0 0 0
-93.207402 -9.683886 157.000000 0 128 0 0
-93.191981 -9.745567 158.000000 0 128 0 0
-92.582884 -9.745567 158.000000 0 128 0 0
-91.973786 -9.745567 158.000000 0 128 0 0
-91.364688 -9.745567 158.000000 0 128 0 0
-90.755590 -9.745567 158.000000 0 128 0 0
-90.146492 -9.745567 158.000000 0 128 0 0
-89.537394 -9.745567 158.000000 0 128 0 0
-88.928296 -9.745567 158.000000 0 128 0 0
-100.616808 -11.102544 180.000000 0 0 128 0
-99.922899 -11.102544 180.000000 0 0 128 0
-99.228990 -11.102544 180.000000 0 0 128 0
-97.987664 -11.040864 179.000000 0 0 0 0
-97.297610 -11.040864 179.000000 0 0 0 0
-96.607556 -11.040864 179.000000 0 0 0 0
-95.917502 -11.040864 179.000000 0 0 0 0
-94.695451 -10.979183 178.000000 0 0 0 0
-94.537394 -11.040864 179.000000 0 0 0 0
-93.847340 -11.040864 179.000000 0 0 0 0
-92.636854 -10.979183 178.000000 0 0 0 0
-91.950655 -10.979183 178.000000 0 0 0 0
-91.264456 -10.979183 178.000000 0 0 0 0
-90.069391 -10.917502 177.000000 0 0 0 0
-89.387047 -10.917502 177.000000 0 0 0 0
-88.704703 -10.917502 177.000000 0 0 0 0
-88.022359 -10.917502 177.000000 0 0 0 0
-87.340015 -10.917502 177.000000 0 0 0 0
-86.657672 -10.917502 177.000000 0 0 0 0
-85.975328 -10.917502 177.000000 0 0 0 0
-85.292984 -10.917502 177.000000 0 0 0 0
-84.132614 -10.855821 176.000000 0 0 0 0
-83.454125 -10.855821 176.000000 0 0 0 0
-82.775636 -10.855821 176.000000 0 0 0 0
-82.097147 -10.855821 176.000000 0 0 0 0
-81.418658 -10.855821 176.000000 0 0 0 0
-80.740170 -10.855821 176.000000 0 0 0 0
-80.061681 -10.855821 176.000000 0 0 0 0
-79.383192 -10.855821 176.000000 0 0 0 0
-78.704703 -10.855821 176.000000 0 0 0 0
-78.026214 -10.855821 176.000000 0 0 0 0
-77.347726 -10.855821 176.000000 0 0 0 0
-76.233616 -10.794140 175.000000 0 0 0 0
-75.558982 -10.794140 175.000000 0 0 0 0
-74.884348 -10.794140 175.000000 0 0 0 0
-74.209715 -10.794140 175.000000 0 0 0 0
-73.535081 -10.794140 175.000000 0 0 0 0
-72.860447 -10.794140 175.000000 0 0 0 0
-72.598304 -10.855821 176.000000 0 0 0 0
-71.919815 -10.855821 176.000000 0 0 0 0
-70.836546 -10.794140 175.000000 0 0 0 0
-70.161912 -10.794140 175.000000 0 0 0 0
-69.487278 -10.794140 175.000000 0 0 0 0
-68.812645 -10.794140 175.000000 0 0 0 0
-68.138011 -10.794140 175.000000 0 0 0 0
-67.463377 -10.794140 175.000000 0 0 0 0
-66.788743 -10.794140 175.000000 0 0 0 0
-66.491904 -10.855821 176.000000 0 0 0 0
-65.813416 -10.855821 176.000000 0 0 0 0
-65.134927 -10.855821 176.000000 0 0 0 0
-64.822668 -10.917502 177.000000 0 0 0 0
-64.140324 -10.917502 177.000000 0 0 0 0
-59.514264 -10.239013 166.000000 0 0 128 0
-58.519661 -10.177332 165.000000 0 0 128 0
-57.883577 -10.177332 165.000000 0 0 128 0
-57.247494 -10.177332 165.000000 0 0 128 0
-56.268311 -10.115652 164.000000 0 0 128 0
-61.403238 -11.164225 181.000000 128 0 0 0
-60.705474 -11.164225 181.000000 128 0 0 0
-60.007710 -11.164225 181.000000 128 0 0 0
-59.309946 -11.164225 181.000000 0 0 0 0
-58.612182 -11.164225 181.000000 0 0 0 0
-58.234387 -11.225906 182.000000 0 0 0 0
-57.532768 -11.225906 182.000000 0 0 0 0
-57.455667 -11.349268 184.000000 0 0 0 0
-57.054742 -11.410948 185.000000 0 0 0 0
-56.341557 -11.410948 185.000000 0 0 0 0
-55.929067 -11.472629 186.000000 0 0 0 0
-55.212028 -11.472629 186.000000 0 0 0 0
-54.787972 -11.534310 187.000000 0 0 0 0
-54.067078 -11.534310 187.000000 0 0 0 0
-53.060910 -11.472629 186.000000 0 0 0 0
-52.343870 -11.472629 186.000000 0 0 0 0
-51.349268 -11.410948 185.000000 0 0 0 0
-50.636083 -11.410948 185.000000 0 0 0 0
-49.653045 -11.349268 184.000000 0 0 0 0
-48.943716 -11.349268 184.000000 0 0 0 0
-47.972244 -11.287587 183.000000 0 0 0 0
-47.266769 -11.287587 183.000000 0 0 0 0
-46.561295 -11.287587 183.000000 0 0 0 0
-45.855821 -11.287587 183.000000 0 0 0 0
-45.150347 -11.287587 183.000000 0 0 0 0
-44.444873 -11.287587 183.000000 0 0 0 0
-43.739399 -11.287587 183.000000 0 0 0 0
-43.033924 -11.287587 183.000000 0 0 0 0
-42.097147 -11.225906 182.000000 0 0 0 0
-41.168080 -11.164225 181.000000 0 0 0 0
-39.799537 -10.979183 178.000000 0 0 0 0
-38.893601 -10.917502 177.000000 0 0 0 0
-38.211257 -10.917502 177.000000 0 0 0 0
-38.589052 -11.225906 182.000000 128 0 0 0
-37.887433 -11.225906 182.000000 128 0 0 0
-37.185813 -11.225906 182.000000 128 0 0 0
-36.484194 -11.225906 182.000000 128 0 0 0
-35.782575 -11.225906 182.000000 128 0 0 0
-35.080956 -11.225906 182.000000 128 0 0 0
-34.379337 -11.225906 182.000000 128 0 0 0
-33.677718 -11.225906 182.000000 128 0 0 0
-32.976099 -11.225906 182.000000 128 0 0 0
-32.274480 -11.225906 182.000000 128 0 0 0
-31.746338 -11.287587 183.000000 128 0 0 0
-31.040864 -11.287587 183.000000 128 0 0 0
-30.335389 -11.287587 183.000000 128 0 0 0
-29.629915 -11.287587 183.000000 128 0 0 0
-28.924441 -11.287587 183.000000 128 0 0 0
-28.218967 -11.287587 183.000000 128 0 0 0
-27.513493 -11.287587 183.000000 128 0 0 0
-26.808019 -11.287587 183.000000 128 0 0 0
-26.102544 -11.287587 183.000000 128 0 0 0
-25.397070 -11.287587 183.000000 128 0 0 0
-24.691596 -11.287587 183.000000 128 0 0 0
-23.986122 -11.287587 183.000000 128 0 0 0
-23.280648 -11.287587 183.000000 128 0 0 0
-22.575173 -11.287587 183.000000 128 0 0 0
-21.869699 -11.287587 183.000000 128 0 0 0
-21.164225 -11.287587 183.000000 128 0 0 0
-20.458751 -11.287587 183.000000 128 0 0 0
-19.753277 -11.287587 183.000000 128 0 0 0
-19.047803 -11.287587 183.000000 128 0 0 0
-18.342328 -11.287587 183.000000 128 0 0 0
-17.636854 -11.287587 183.000000 128 0 0 0
-16.931380 -11.287587 183.000000 128 0 0 0
-16.225906 -11.287587 183.000000 128 0 0 0
-15.520432 -11.287587 183.000000 128 0 0 0
-14.814958 -11.287587 183.000000 128 0 0 0
-14.109483 -11.287587 183.000000 128 0 0 0
-13.404009 -11.287587 183.000000 128 0 0 0
-12.767926 -11.349268 184.000000 128 0 0 0
-12.058597 -11.349268 184.000000 128 0 0 0
-11.349268 -11.349268 184.000000 128 0 0 0
-10.639938 -11.349268 184.000000 128 0 0 0
-9.930609 -11.349268 184.000000 128 0 0 0
-9.221280 -11.349268 184.000000 128 0 0 0
-8.511951 -11.349268 184.000000 128 0 0 0
-7.802621 -11.349268 184.000000 128 0 0 0
-6.553585 -10.485736 170.000000 0 0 0 0
-5.724749 -10.177332 165.000000 0 0 0 0
-5.026985 -10.053971 163.000000 0 0 0 0
-4.344641 -9.930609 161.000000 0 0 0 0
-3.723978 -9.930609 161.000000 0 0 0 0
-3.045490 -9.745567 158.000000 0 0 0 0
-2.390131 -9.560524 155.000000 0 0 0 0
-1.792598 -9.560524 155.000000 0 0 0 0
-1.202776 -9.622205 156.000000 0 0 0 0
-0.601388 -9.622205 156.000000 0 0 0 0
0.000000 -9.622205 156.000000 0 0 0 0
0.601388 -9.622205 156.000000 0 0 0 0
1.202776 -9.622205 156.000000 0 0 0 0
1.792598 -9.560524 155.000000 0 0 0 0
2.390131 -9.560524 155.000000 0 0 0 0
2.968389 -9.498843 154.000000 0 0 0 0
3.562066 -9.498843 154.000000 0 0 0 0
4.155744 -9.498843 154.000000 0 0 0 0
4.749422 -9.498843 154.000000 0 0 0 0
5.343099 -9.498843 154.000000 0 0 0 0
5.975328 -9.560524 155.000000 0 0 0 0
6.572860 -9.560524 155.000000 0 0 0 0
7.170393 -9.560524 155.000000 0 0 0 0
7.767926 -9.560524 155.000000 0 0 0 0
8.365459 -9.560524 155.000000 0 0 0 0
8.905166 -9.498843 154.000000 0 0 0 0
9.622205 -9.622205 156.000000 0 0 0 0
10.420200 -9.807247 159.000000 0 0 0 0
11.171935 -9.930609 161.000000 0 0 0 0
11.719352 -9.868928 160.000000 0 0 0 0
12.336160 -9.868928 160.000000 0 0 0 0
12.872012 -9.807247 159.000000 0 0 0 0
13.484965 -9.807247 159.000000 0 0 0 0
14.186584 -9.868928 160.000000 0 0 0 0
14.895914 -9.930609 161.000000 0 0 0 0
15.612953 -9.992290 162.000000 0 0 0 0
16.437934 -10.115652 164.000000 0 0 0 0
17.486507 -10.362375 168.000000 0 0 0 0
18.781804 -10.732460 174.000000 0 0 0 0
19.787972 -10.917502 177.000000 0 0 0 0
20.932922 -11.164225 181.000000 0 0 0 0
21.391673 -11.040864 179.000000 128 128 0 0
22.205089 -11.102544 180.000000 128 128 0 0
23.026214 -11.164225 181.000000 128 128 0 0
23.855050 -11.225906 182.000000 128 128 0 0
24.691596 -11.287587 183.000000 128 128 0 0
25.397070 -11.287587 183.000000 128 128 0 0
26.245181 -11.349268 184.000000 128 128 0 0
27.101002 -11.410948 185.000000 128 128 0 0
27.964534 -11.472629 186.000000 128 128 0 0
28.681573 -11.472629 186.000000 128 128 0 0
29.556669 -11.534310 187.000000 128 128 0 0
30.439476 -11.595991 188.000000 128 128 0 0
31.164225 -11.595991 188.000000 128 128 0 0
32.058597 -11.657672 189.000000 128 128 0 0
33.481110 -11.904395 193.000000 0 0 0 0
34.402467 -11.966076 194.000000 0 0 0 0
35.150347 -11.966076 194.000000 0 0 0 0
35.898227 -11.966076 194.000000 0 0 0 0
36.646106 -11.966076 194.000000 0 0 0 0
37.393986 -11.966076 194.000000 0 0 0 0
38.338473 -12.027756 195.000000 0 0 0 0
39.090208 -12.027756 195.000000 0 0 0 0
39.841943 -12.027756 195.000000 0 0 0 0
40.593678 -12.027756 195.000000 0 0 0 0
41.557440 -12.089437 196.000000 0 0 0 0
42.313030 -12.089437 196.000000 0 0 0 0
43.068620 -12.089437 196.000000 0 0 0 0
44.047803 -12.151118 197.000000 0 0 0 0
44.807247 -12.151118 197.000000 0 0 0 0
45.797995 -12.212799 198.000000 0 0 0 0
46.796453 -12.274480 199.000000 0 0 0 0
47.563608 -12.274480 199.000000 0 0 0 0
48.573631 -12.336160 200.000000 0 0 0 0
49.591365 -12.397841 201.000000 0 0 0 0
50.616808 -12.459522 202.000000 0 0 0 0
51.649961 -12.521203 203.000000 0 0 0 0
52.432537 -12.521203 203.000000 0 0 0 0
53.477255 -12.582884 204.000000 0 0 0 0
54.263685 -12.582884 204.000000 0 0 0 0
55.319969 -12.644564 205.000000 0 0 0 0
56.110254 -12.644564 205.000000 0 0 0 0
57.178103 -12.706245 206.000000 0 0 0 0
57.972244 -12.706245 206.000000 0 0 0 0
58.195837 -12.582884 204.000000 128 128 0 0
59.271396 -12.644564 205.000000 128 128 0 0
60.061681 -12.644564 205.000000 128 128 0 0
60.851966 -12.644564 205.000000 128 128 0 0
61.942945 -12.706245 206.000000 128 128 0 0
62.737086 -12.706245 206.000000 128 128 0 0
63.839630 -12.767926 207.000000 128 128 0 0
64.637625 -12.767926 207.000000 128 128 0 0
65.435621 -12.767926 207.000000 128 128 0 0
66.553585 -12.829607 208.000000 128 128 0 0
67.355436 -12.829607 208.000000 128 128 0 0
68.157286 -12.829607 208.000000 128 128 0 0
69.290671 -12.891288 209.000000 128 128 0 0
70.096376 -12.891288 209.000000 128 128 0 0
70.902082 -12.891288 209.000000 128 128 0 0
72.050887 -12.952968 210.000000 128 128 0 0
72.860447 -12.952968 210.000000 128 128 0 0
73.670008 -12.952968 210.000000 128 128 0 0
74.834233 -13.014649 211.000000 128 128 0 0
75.647648 -13.014649 211.000000 0 0 0 0
76.461064 -13.014649 211.000000 0 0 0 0
77.640709 -13.076330 212.000000 0 0 0 0
-109.175019 -10.235158 177.000000 0 0 0 0
-110.331534 -10.408635 180.000000 0 0 0 0
-109.637625 -10.408635 180.000000 0 0 0 0
-108.943716 -10.408635 180.000000 0 0 0 0
-107.648419 -10.350810 179.000000 0 0 0 0
-106.360833 -10.292984 178.000000 0 0 0 0
-93.207402 -9.078643 157.000000 0 128 0 0
-92.602159 -9.078643 157.000000 0 128 0 0
-91.996916 -9.078643 157.000000 0 128 0 0
-91.973786 -9.136469 158.000000 0 128 0 0
-91.364688 -9.136469 158.000000 0 128 0 0
-90.755590 -9.136469 158.000000 0 128 0 0
-90.146492 -9.136469 158.000000 0 128 0 0
-89.537394 -9.136469 158.000000 0 128 0 0
-88.928296 -9.136469 158.000000 0 128 0 0
-88.319198 -9.136469 158.000000 0 128 0 0
-99.922899 -10.408635 180.000000 0 0 128 0
-99.228990 -10.408635 180.000000 0 0 128 0
-97.987664 -10.350810 179.000000 0 0 0 0
-97.297610 -10.350810 179.000000 0 0 0 0
-96.607556 -10.350810 179.000000 0 0 0 0
-95.917502 -10.350810 179.000000 0 0 0 0
-95.227448 -10.350810 179.000000 0 0 0 0
-94.537394 -10.350810 179.000000 0 0 0 0
-93.847340 -10.350810 179.000000 0 0 0 0
-93.157286 -10.350810 179.000000 0 0 0 0
-92.467232 -10.350810 179.000000 0 0 0 0
-91.264456 -10.292984 178.000000 0 0 0 0
-90.578258 -10.292984 178.000000 0 0 0 0
-89.892059 -10.292984 178.000000 0 0 0 0
-89.205860 -10.292984 178.000000 0 0 0 0
-88.519661 -10.292984 178.000000 0 0 0 0
-87.340015 -10.235158 177.000000 0 0 0 0
-86.657672 -10.235158 177.000000 0 0 0 0
-85.975328 -10.235158 177.000000 0 0 0 0
-85.292984 -10.235158 177.000000 0 0 0 0
-84.610640 -10.235158 177.000000 0 0 0 0
-83.928296 -10.235158 177.000000 0 0 0 0
-83.245952 -10.235158 177.000000 0 0 0 0
-82.097147 -10.177332 176.000000 0 0 0 0
-81.418658 -10.177332 176.000000 0 0 0 0
-81.198921 -10.235158 177.000000 0 0 0 0
-80.516577 -10.235158 177.000000 0 0 0 0
-79.834233 -10.235158 177.000000 0 0 0 0
-78.704703 -10.177332 176.000000 0 0 0 0
-78.026214 -10.177332 176.000000 0 0 0 0
-77.347726 -10.177332 176.000000 0 0 0 0
-76.233616 -10.119507 175.000000 0 0 0 0
-75.558982 -10.119507 175.000000 0 0 0 0
-74.884348 -10.119507 175.000000 0 0 0 0
-74.209715 -10.119507 175.000000 0 0 0 0
-73.955281 -10.177332 176.000000 0 0 0 0
-73.276793 -10.177332 176.000000 0 0 0 0
-72.598304 -10.177332 176.000000 0 0 0 0
-71.919815 -10.177332 176.000000 0 0 0 0
-71.241326 -10.177332 176.000000 0 0 0 0
-70.562837 -10.177332 176.000000 0 0 0 0
-69.487278 -10.119507 175.000000 0 0 0 0
-68.812645 -10.119507 175.000000 0 0 0 0
-68.138011 -10.119507 175.000000 0 0 0 0
-67.463377 -10.119507 175.000000 0 0 0 0
-67.170393 -10.177332 176.000000 0 0 0 0
-66.491904 -10.177332 176.000000 0 0 0 0
-65.813416 -10.177332 176.000000 0 0 0 0
-65.134927 -10.177332 176.000000 0 0 0 0
-65.188897 -10.292984 178.000000 0 0 0 0
-64.865073 -10.350810 179.000000 0 0 0 0
-64.175019 -10.350810 179.000000 0 0 0 0
-58.519661 -9.541249 165.000000 0 0 128 0
-57.883577 -9.541249 165.000000 0 0 128 0
-56.900540 -9.483423 164.000000 0 0 128 0
-62.101002 -10.466461 181.000000 128 0 0 0
-61.403238 -10.466461 181.000000 128 0 0 0
-61.040864 -10.524287 182.000000 128 0 0 0
-60.339244 -10.524287 182.000000 0 0 0 0
-59.637625 -10.524287 182.000000 0 0 0 0
-59.259830 -10.582113 183.000000 0 0 0 0
-58.874325 -10.639938 184.000000 0 0 0 0
-58.164996 -10.639938 184.000000 0 0 0 0
-58.080185 -10.755590 186.000000 0 0 0 0
-57.671550 -10.813416 187.000000 0 0 0 0
-56.950655 -10.813416 187.000000 0 0 0 0
-56.229761 -10.813416 187.000000 0 0 0 0
-55.508867 -10.813416 187.000000 0 0 0 0
-54.787972 -10.813416 187.000000 0 0 0 0
-54.067078 -10.813416 187.000000 0 0 0 0
-53.346184 -10.813416 187.000000 0 0 0 0
-52.343870 -10.755590 186.000000 0 0 0 0
-51.349268 -10.697764 185.000000 0 0 0 0
-50.362375 -10.639938 184.000000 0 0 0 0
-49.653045 -10.639938 184.000000 0 0 0 0
-48.943716 -10.639938 184.000000 0 0 0 0
-48.234387 -10.639938 184.000000 0 0 0 0
-47.525058 -10.639938 184.000000 0 0 0 0
-46.815729 -10.639938 184.000000 0 0 0 0
-46.106399 -10.639938 184.000000 0 0 0 0
-45.397070 -10.639938 184.000000 0 0 0 0
-44.687741 -10.639938 184.000000 0 0 0 0
-43.978412 -10.639938 184.000000 0 0 0 0
-43.269082 -10.639938 184.000000 0 0 0 0
-42.328450 -10.582113 183.000000 0 0 0 0
-41.395528 -10.524287 182.000000 0 0 0 0
-40.023130 -10.350810 179.000000 0 0 0 0
-39.113338 -10.292984 178.000000 0 0 0 0
-38.427140 -10.292984 178.000000 0 0 0 0
-38.801079 -10.582113 183.000000 128 0 0 0
-38.095605 -10.582113 183.000000 128 0 0 0
-37.390131 -10.582113 183.000000 128 0 0 0
-36.684657 -10.582113 183.000000 128 0 0 0
-35.979183 -10.582113 183.000000 128 0 0 0
-35.273709 -10.582113 183.000000 128 0 0 0
-34.568234 -10.582113 183.000000 128 0 0 0
-33.862760 -10.582113 183.000000 128 0 0 0
-33.157286 -10.582113 183.000000 128 0 0 0
-32.451812 -10.582113 183.000000 128 0 0 0
-31.746338 -10.582113 183.000000 128 0 0 0
-31.040864 -10.582113 183.000000 128 0 0 0
-30.335389 -10.582113 183.000000 128 0 0 0
-29.629915 -10.582113 183.000000 128 0 0 0
-28.924441 -10.582113 183.000000 128 0 0 0
-28.218967 -10.582113 183.000000 128 0 0 0
-27.513493 -10.582113 183.000000 128 0 0 0
-26.808019 -10.582113 183.000000 128 0 0 0
-26.102544 -10.582113 183.000000 128 0 0 0
-25.397070 -10.582113 183.000000 128 0 0 0
-24.691596 -10.582113 183.000000 128 0 0 0
-23.986122 -10.582113 183.000000 128 0 0 0
-23.407864 -10.639938 184.000000 128 0 0 0
-22.698535 -10.639938 184.000000 128 0 0 0
-21.989206 -10.639938 184.000000 128 0 0 0
-21.279877 -10.639938 184.000000 128 0 0 0
-20.570547 -10.639938 184.000000 128 0 0 0
-19.861218 -10.639938 184.000000 128 0 0 0
-19.151889 -10.639938 184.000000 128 0 0 0
-18.442560 -10.639938 184.000000 128 0 0 0
-17.733231 -10.639938 184.000000 128 0 0 0
-17.023901 -10.639938 184.000000 128 0 0 0
-16.314572 -10.639938 184.000000 128 0 0 0
-15.605243 -10.639938 184.000000 128 0 0 0
-14.895914 -10.639938 184.000000 128 0 0 0
-14.186584 -10.639938 184.000000 128 0 0 0
-13.477255 -10.639938 184.000000 128 0 0 0
-12.767926 -10.639938 184.000000 128 0 0 0
-12.058597 -10.639938 184.000000 128 0 0 0
-11.349268 -10.639938 184.000000 128 0 0 0
-10.639938 -10.639938 184.000000 128 0 0 0
-9.930609 -10.639938 184.000000 128 0 0 0
-9.221280 -10.639938 184.000000 128 0 0 0
-8.511951 -10.639938 184.000000 128 0 0 0
-7.802621 -10.639938 184.000000 128 0 0 0
-6.592136 -9.888204 171.000000 0 0 0 0
-5.724749 -9.541249 165.000000 0 0 0 0
-5.026985 -9.425598 163.000000 0 0 0 0
-4.344641 -9.309946 161.000000 0 0 0 0
-3.723978 -9.309946 161.000000 0 0 0 0
-3.045490 -9.136469 158.000000 0 0 0 0
-2.390131 -8.962992 155.000000 0 0 0 0
-1.792598 -8.962992 155.000000 0 0 0 0
-1.195066 -8.962992 155.000000 0 0 0 0
-0.597533 -8.962992 155.000000 0 0 0 0
0.000000 -8.962992 155.000000 0 0 0 0
0.597533 -8.962992 155.000000 0 0 0 0
1.195066 -8.962992 155.000000 0 0 0 0
1.792598 -8.962992 155.000000 0 0 0 0
2.374711 -8.905166 154.000000 0 0 0 0
2.968389 -8.905166 154.000000 0 0 0 0
3.538936 -8.847340 153.000000 0 0 0 0
4.128759 -8.847340 153.000000 0 0 0 0
4.749422 -8.905166 154.000000 0 0 0 0
5.343099 -8.905166 154.000000 0 0 0 0
5.936777 -8.905166 154.000000 0 0 0 0
6.530455 -8.905166 154.000000 0 0 0 0
7.170393 -8.962992 155.000000 0 0 0 0
7.767926 -8.962992 155.000000 0 0 0 0
8.311488 -8.905166 154.000000 0 0 0 0
8.905166 -8.905166 154.000000 0 0 0 0
9.683886 -9.078643 157.000000 0 0 0 0
10.420200 -9.194295 159.000000 0 0 0 0
11.102544 -9.252120 160.000000 0 0 0 0
11.719352 -9.252120 160.000000 0 0 0 0
12.336160 -9.252120 160.000000 0 0 0 0
12.872012 -9.194295 159.000000 0 0 0 0
13.484965 -9.194295 159.000000 0 0 0 0
14.186584 -9.252120 160.000000 0 0 0 0
14.988435 -9.367772 162.000000 0 0 0 0
15.709329 -9.425598 163.000000 0 0 0 0
16.437934 -9.483423 164.000000 0 0 0 0
17.382421 -9.656901 167.000000 0 0 0 0
18.565921 -9.946029 172.000000 0 0 0 0
19.676176 -10.177332 176.000000 0 0 0 0
20.817271 -10.408635 180.000000 0 0 0 0
21.391673 -10.350810 179.000000 128 128 0 0
22.205089 -10.408635 180.000000 128 128 0 0
23.026214 -10.466461 181.000000 128 128 0 0
23.855050 -10.524287 182.000000 128 128 0 0
24.691596 -10.582113 183.000000 128 128 0 0
25.397070 -10.582113 183.000000 128 128 0 0
26.245181 -10.639938 184.000000 128 128 0 0
27.101002 -10.697764 185.000000 128 128 0 0
27.964534 -10.755590 186.000000 128 128 0 0
28.681573 -10.755590 186.000000 128 128 0 0
29.556669 -10.813416 187.000000 128 128 0 0
30.439476 -10.871241 188.000000 128 128 0 0
31.827294 -11.102544 192.000000 0 0 0 0
32.737086 -11.160370 193.000000 0 0 0 0
33.481110 -11.160370 193.000000 0 0 0 0
34.402467 -11.218196 194.000000 0 0 0 0
35.150347 -11.218196 194.000000 0 0 0 0
35.898227 -11.218196 194.000000 0 0 0 0
36.646106 -11.218196 194.000000 0 0 0 0
37.586739 -11.276022 195.000000 0 0 0 0
38.338473 -11.276022 195.000000 0 0 0 0
39.090208 -11.276022 195.000000 0 0 0 0
39.841943 -11.276022 195.000000 0 0 0 0
40.801850 -11.333847 196.000000 0 0 0 0
41.557440 -11.333847 196.000000 0 0 0 0
42.313030 -11.333847 196.000000 0 0 0 0
43.068620 -11.333847 196.000000 0 0 0 0
44.047803 -11.391673 197.000000 0 0 0 0
44.807247 -11.391673 197.000000 0 0 0 0
45.797995 -11.449499 198.000000 0 0 0 0
46.796453 -11.507325 199.000000 0 0 0 0
47.802621 -11.565150 200.000000 0 0 0 0
48.573631 -11.565150 200.000000 0 0 0 0
49.591365 -11.622976 201.000000 0 0 0 0
50.616808 -11.680802 202.000000 0 0 0 0
51.649961 -11.738628 203.000000 0 0 0 0
52.432537 -11.738628 203.000000 0 0 0 0
53.477255 -11.796453 204.000000 0 0 0 0
54.529684 -11.854279 205.000000 0 0 0 0
55.319969 -11.854279 205.000000 0 0 0 0
56.383963 -11.912105 206.000000 0 0 0 0
57.178103 -11.912105 206.000000 0 0 0 0
58.253662 -11.969931 207.000000 0 0 0 0
58.195837 -11.796453 204.000000 128 128 0 0
59.271396 -11.854279 205.000000 128 128 0 0
60.061681 -11.854279 205.000000 128 128 0 0
60.851966 -11.854279 205.000000 128 128 0 0
61.942945 -11.912105 206.000000 128 128 0 0
62.737086 -11.912105 206.000000 128 128 0 0
63.839630 -11.969931 207.000000 128 128 0 0
64.637625 -11.969931 207.000000 128 128 0 0
65.435621 -11.969931 207.000000 128 128 0 0
66.553585 -12.027756 208.000000 128 128 0 0
67.355436 -12.027756 208.000000 128 128 0 0
68.157286 -12.027756 208.000000 128 128 0 0
69.290671 -12.085582 209.000000 128 128 0 0
70.096376 -12.085582 209.000000 128 128 0 0
70.902082 -12.085582 209.000000 128 128 0 0
72.050887 -12.143408 210.000000 128 128 0 0
72.860447 -12.143408 210.000000 128 128 0 0
73.670008 -12.143408 210.000000 128 128 0 0
74.479568 -12.143408 210.000000 128 128 0 0
75.647648 -12.201234 211.000000 0 0 0 0
76.461064 -12.201234 211.000000 0 0 0 0
77.640709 -12.259059 212.000000 0 0 0 0
-109.175019 -9.552814 177.000000 0 0 0 0
-110.331534 -9.714726 180.000000 0 0 0 0
-109.637625 -9.714726 180.000000 0 0 0 0
-108.943716 -9.714726 180.000000 0 0 0 0
-107.648419 -9.660756 179.000000 0 0 0 0
-106.360833 -9.606785 178.000000 0 0 0 0
-93.207402 -8.473400 157.000000 0 128 0 0
-92.602159 -8.473400 157.000000 0 128 0 0
-91.996916 -8.473400 157.000000 0 128 0 0
-91.391673 -8.473400 157.000000 0 128 0 0
-90.786430 -8.473400 157.000000 0 128 0 0
-90.755590 -8.527371 158.000000 0 128 0 0
-90.146492 -8.527371 158.000000 0 128 0 0
-89.537394 -8.527371 158.000000 0 128 0 0
-88.928296 -8.527371 158.000000 0 128 0 0
-88.319198 -8.527371 158.000000 0 128 0 0
-99.922899 -9.714726 180.000000 0 0 128 0
-99.228990 -9.714726 180.000000 0 0 128 0
-97.987664 -9.660756 179.000000 0 0 0 0
-97.297610 -9.660756 179.000000 0 0 0 0
-96.607556 -9.660756 179.000000 0 0 0 0
-95.917502 -9.660756 179.000000 0 0 0 0
-95.227448 -9.660756 179.000000 0 0 0 0
-94.537394 -9.660756 179.000000 0 0 0 0
-93.847340 -9.660756 179.000000 0 0 0 0
-93.157286 -9.660756 179.000000 0 0 0 0
-92.467232 -9.660756 179.000000 0 0 0 0
-91.777178 -9.660756 179.000000 0 0 0 0
-90.578258 -9.606785 178.000000 0 0 0 0
-89.892059 -9.606785 178.000000 0 0 0 0
-89.205860 -9.606785 178.000000 0 0 0 0
-88.519661 -9.606785 178.000000 0 0 0 0
-87.833462 -9.606785 178.000000 0 0 0 0
-86.657672 -9.552814 177.000000 0 0 0 0
-85.975328 -9.552814 177.000000 0 0 0 0
-85.292984 -9.552814 177.000000 0 0 0 0
-84.610640 -9.552814 177.000000 0 0 0 0
-83.928296 -9.552814 177.000000 0 0 0 0
-83.245952 -9.552814 177.000000 0 0 0 0
-82.563608 -9.552814 177.000000 0 0 0 0
-81.881264 -9.552814 177.000000 0 0 0 0
-81.198921 -9.552814 177.000000 0 0 0 0
-80.516577 -9.552814 177.000000 0 0 0 0
-79.834233 -9.552814 177.000000 0 0 0 0
-78.704703 -9.498843 176.000000 0 0 0 0
-78.026214 -9.498843 176.000000 0 0 0 0
-76.908250 -9.444873 175.000000 0 0 0 0
-76.233616 -9.444873 175.000000 0 0 0 0
-75.558982 -9.444873 175.000000 0 0 0 0
-75.312259 -9.498843 176.000000 0 0 0 0
-74.633770 -9.498843 176.000000 0 0 0 0
-73.955281 -9.498843 176.000000 0 0 0 0
-73.276793 -9.498843 176.000000 0 0 0 0
