ply
                       format ascii 1.0
                       element vertex 49152
                       property float x
                       property float y
                       property float z
                       property uchar red
                       property uchar green
                       property uchar blue
                       property uchar alpha
                       end_header
-45.944487 44.387047 202.000000 128 128 128 0
-45.165767 44.387047 202.000000 128 128 128 0
-44.387047 44.387047 202.000000 128 128 128 0
-43.608327 44.387047 202.000000 128 128 128 0
-42.829607 44.387047 202.000000 128 128 128 0
-42.050887 44.387047 202.000000 128 128 128 0
-41.272167 44.387047 202.000000 128 128 128 0
-40.493446 44.387047 202.000000 128 128 128 0
-39.714726 44.387047 202.000000 128 128 128 0
-38.936006 44.387047 202.000000 128 128 128 0
-36.079414 41.969931 191.000000 128 128 0 0
-25.720894 30.543562 139.000000 128 0 0 0
-25.185042 30.543562 139.000000 128 0 0 0
-24.649190 30.543562 139.000000 128 0 0 0
-24.113338 30.543562 139.000000 128 0 0 0
-23.577487 30.543562 139.000000 128 0 0 0
-23.041635 30.543562 139.000000 128 0 0 0
-22.505783 30.543562 139.000000 128 0 0 0
-21.969931 30.543562 139.000000 128 0 0 0
-21.434079 30.543562 139.000000 128 0 0 0
-20.898227 30.543562 139.000000 128 0 0 0
-20.362375 30.543562 139.000000 128 0 0 0
-19.826523 30.543562 139.000000 128 0 0 0
-19.290671 30.543562 139.000000 128 0 0 0
-18.754819 30.543562 139.000000 128 0 0 0
-18.218967 30.543562 139.000000 128 0 0 0
-17.683115 30.543562 139.000000 128 0 0 0
-17.147263 30.543562 139.000000 128 0 0 0
-16.611411 30.543562 139.000000 128 0 0 0
-16.075559 30.543562 139.000000 128 0 0 0
-15.539707 30.543562 139.000000 128 0 0 0
-15.003855 30.543562 139.000000 128 0 0 0
-14.468003 30.543562 139.000000 128 0 0 0
-13.932151 30.543562 139.000000 128 0 0 0
-13.396299 30.543562 139.000000 128 0 0 0
-12.860447 30.543562 139.000000 128 0 0 0
-12.324595 30.543562 139.000000 128 0 0 0
-11.788743 30.543562 139.000000 128 0 0 0
-11.252891 30.543562 139.000000 128 0 0 0
-10.717039 30.543562 139.000000 128 0 0 0
-10.181187 30.543562 139.000000 128 0 0 0
-9.645335 30.543562 139.000000 128 0 0 0
-9.109483 30.543562 139.000000 128 0 0 0
-8.573631 30.543562 139.000000 128 0 0 0
-8.037779 30.543562 139.000000 128 0 0 0
-7.501928 30.543562 139.000000 128 0 0 0
-6.966076 30.543562 139.000000 128 0 0 0
-6.430224 30.543562 139.000000 128 0 0 0
-5.894372 30.543562 139.000000 128 0 0 0
-5.358520 30.543562 139.000000 128 0 0 0
-4.822668 30.543562 139.000000 128 0 0 0
-4.286816 30.543562 139.000000 128 0 0 0
-3.750964 30.543562 139.000000 128 0 0 0
-3.215112 30.543562 139.000000 128 0 0 0
-2.679260 30.543562 139.000000 128 0 0 0
-2.143408 30.543562 139.000000 128 0 0 0
-1.607556 30.543562 139.000000 128 0 0 0
-1.071704 30.543562 139.000000 128 0 0 0
-0.535852 30.543562 139.000000 128 0 0 0
0.000000 28.346184 129.000000 192 0 0 0
0.497301 28.346184 129.000000 192 0 0 0
1.403238 39.992290 182.000000 128 0 128 0
2.104857 39.992290 182.000000 128 0 128 0
2.806476 39.992290 182.000000 128 0 128 0
3.508096 39.992290 182.000000 128 0 128 0
4.209715 39.992290 182.000000 128 0 128 0
4.911334 39.992290 182.000000 128 0 128 0
5.612953 39.992290 182.000000 128 0 128 0
6.349268 40.212028 183.000000 128 0 128 0
7.054742 40.212028 183.000000 128 0 128 0
7.760216 40.212028 183.000000 128 0 128 0
8.465690 40.212028 183.000000 128 0 128 0
9.171164 40.212028 183.000000 128 0 128 0
9.876638 40.212028 183.000000 128 0 128 0
10.582113 40.212028 183.000000 128 0 128 0
11.349268 40.431766 184.000000 128 0 128 0
12.058597 40.431766 184.000000 128 0 128 0
12.767926 40.431766 184.000000 128 0 128 0
13.477255 40.431766 184.000000 128 0 128 0
15.111796 43.068620 196.000000 0 0 0 0
15.948342 43.288358 197.000000 0 0 0 0
16.707787 43.288358 197.000000 0 0 0 0
17.467232 43.288358 197.000000 0 0 0 0
17.116423 40.651503 185.000000 128 0 128 0
17.829607 40.651503 185.000000 128 0 128 0
18.542791 40.651503 185.000000 128 0 128 0
19.255975 40.651503 185.000000 128 0 128 0
19.969160 40.651503 185.000000 128 0 128 0
20.682344 40.651503 185.000000 128 0 128 0
21.511180 40.871241 186.000000 128 0 128 0
22.228219 40.871241 186.000000 128 0 128 0
22.945258 40.871241 186.000000 128 0 128 0
23.662298 40.871241 186.000000 128 0 128 0
24.379337 40.871241 186.000000 128 0 128 0
25.096376 40.871241 186.000000 128 0 128 0
25.813416 40.871241 186.000000 128 0 128 0
26.530455 40.871241 186.000000 128 0 128 0
27.393986 41.090979 187.000000 64 0 128 0
28.265227 41.310717 188.000000 64 0 128 0
28.989977 41.310717 188.000000 64 0 128 0
29.872783 41.530455 189.000000 64 0 128 0
30.763300 41.750193 190.000000 64 0 128 0
31.661527 41.969931 191.000000 64 0 128 0
32.567463 42.189668 192.000000 64 0 128 0
33.307633 42.189668 192.000000 64 0 128 0
34.225135 42.409406 193.000000 64 0 128 0
35.150347 42.629144 194.000000 64 0 128 0
35.898227 42.629144 194.000000 64 0 128 0
36.835004 42.848882 195.000000 64 0 128 0
37.779491 43.068620 196.000000 64 0 128 0
38.731689 43.288358 197.000000 64 0 128 0
39.491133 43.288358 197.000000 64 0 128 0
40.454896 43.508096 198.000000 64 0 128 0
41.218196 43.508096 198.000000 64 0 128 0
42.193524 43.727833 199.000000 64 0 128 0
43.176561 43.947571 200.000000 64 0 128 0
43.947571 43.947571 200.000000 64 0 128 0
43.600617 42.848882 195.000000 192 128 0 0
44.579800 43.068620 196.000000 192 128 0 0
45.335389 43.068620 196.000000 192 128 0 0
46.090979 43.068620 196.000000 192 128 0 0
47.085582 43.288358 197.000000 192 128 0 0
47.845027 43.288358 197.000000 192 128 0 0
48.604472 43.288358 197.000000 192 128 0 0
49.614495 43.508096 198.000000 192 128 0 0
50.377795 43.508096 198.000000 192 128 0 0
51.141095 43.508096 198.000000 192 128 0 0
52.166538 43.727833 199.000000 192 128 0 0
52.933693 43.727833 199.000000 192 128 0 0
53.700848 43.727833 199.000000 192 128 0 0
54.741712 43.947571 200.000000 192 128 0 0
55.512722 43.947571 200.000000 192 128 0 0
56.283732 43.947571 200.000000 192 128 0 0
57.054742 43.947571 200.000000 192 128 0 0
58.114880 44.167309 201.000000 192 128 0 0
58.889746 44.167309 201.000000 192 128 0 0
59.664611 44.167309 201.000000 192 128 0 0
60.439476 44.167309 201.000000 192 128 0 0
61.518890 44.387047 202.000000 192 128 0 0
62.297610 44.387047 202.000000 192 128 0 0
63.076330 44.387047 202.000000 192 128 0 0
64.171164 44.606785 203.000000 192 128 0 0
64.953739 44.606785 203.000000 192 128 0 0
65.736315 44.606785 203.000000 192 128 0 0
66.518890 44.606785 203.000000 192 128 0 0
67.632999 44.826523 204.000000 192 128 0 0
68.419429 44.826523 204.000000 192 128 0 0
69.205860 44.826523 204.000000 192 128 0 0
69.992290 44.826523 204.000000 192 128 0 0
71.125675 45.046261 205.000000 192 128 0 0
71.915960 45.046261 205.000000 192 128 0 0
72.706245 45.046261 205.000000 192 128 0 0
73.496530 45.046261 205.000000 192 128 0 0
74.286816 45.046261 205.000000 192 128 0 0
75.443331 45.265998 206.000000 192 128 0 0
-96.222051 34.880493 156.000000 0 0 0 0
-101.137240 36.892830 165.000000 0 0 0 0
-99.892059 36.669237 164.000000 0 0 0 0
-110.154202 40.693909 182.000000 0 128 0 0
-109.452583 40.693909 182.000000 0 128 0 0
-108.153431 40.470316 181.000000 0 128 0 0
-107.455667 40.470316 181.000000 0 128 0 0
-106.168080 40.246723 180.000000 0 128 0 0
-105.474171 40.246723 180.000000 0 128 0 0
-104.198150 40.023130 179.000000 0 128 0 0
-103.508096 40.023130 179.000000 0 128 0 0
-113.731689 44.271396 198.000000 0 0 128 0
-112.968389 44.271396 198.000000 0 0 128 0
-111.638396 44.047803 197.000000 0 0 128 0
-110.878951 44.047803 197.000000 0 0 128 0
-110.119507 44.047803 197.000000 0 0 128 0
-109.360062 44.047803 197.000000 0 0 128 0
-108.600617 44.047803 197.000000 0 0 128 0
-107.293755 43.824210 196.000000 0 0 128 0
-106.538165 43.824210 196.000000 0 0 128 0
-105.782575 43.824210 196.000000 0 0 128 0
-105.026985 43.824210 196.000000 0 0 128 0
-104.271396 43.824210 196.000000 0 0 128 0
-103.515806 43.824210 196.000000 0 0 128 0
-102.235929 43.600617 195.000000 0 0 128 0
-101.484194 43.600617 195.000000 0 0 128 0
-100.732460 43.600617 195.000000 0 0 128 0
-99.980725 43.600617 195.000000 0 0 128 0
-99.228990 43.600617 195.000000 0 0 128 0
-98.477255 43.600617 195.000000 0 0 128 0
-97.224364 43.377024 194.000000 0 0 128 0
-96.476484 43.377024 194.000000 0 0 128 0
-95.728604 43.377024 194.000000 0 0 128 0
-94.980725 43.377024 194.000000 0 0 128 0
-94.232845 43.377024 194.000000 0 0 128 0
-93.003084 43.153431 193.000000 0 0 128 0
-92.259059 43.153431 193.000000 0 0 128 0
-91.515035 43.153431 193.000000 0 0 128 0
-90.771010 43.153431 193.000000 0 0 128 0
-90.026985 43.153431 193.000000 0 0 128 0
-88.820355 42.929838 192.000000 0 0 128 0
-88.080185 42.929838 192.000000 0 0 128 0
-87.340015 42.929838 192.000000 0 0 128 0
-86.599846 42.929838 192.000000 0 0 128 0
-85.859676 42.929838 192.000000 0 0 128 0
-84.676176 42.706245 191.000000 0 0 128 0
-83.939861 42.706245 191.000000 0 0 128 0
-83.203547 42.706245 191.000000 0 0 128 0
-82.467232 42.706245 191.000000 0 0 128 0
-81.730918 42.706245 191.000000 0 0 128 0
-80.570547 42.482652 190.000000 0 0 128 0
-79.838088 42.482652 190.000000 0 0 128 0
-79.105628 42.482652 190.000000 0 0 128 0
-78.373169 42.482652 190.000000 0 0 128 0
-77.640709 42.482652 190.000000 0 0 128 0
-76.503470 42.259059 189.000000 0 0 128 0
-75.774865 42.259059 189.000000 0 0 128 0
-75.046261 42.259059 189.000000 0 0 128 0
-74.317656 42.259059 189.000000 0 0 128 0
-73.589052 42.259059 189.000000 0 0 128 0
-72.474942 42.035466 188.000000 0 0 128 0
-71.750193 42.035466 188.000000 0 0 128 0
-71.025443 42.035466 188.000000 0 0 128 0
-70.300694 42.035466 188.000000 0 0 128 0
-69.205860 41.811874 187.000000 0 0 128 0
-75.077101 45.836546 205.000000 0 0 0 0
-74.286816 45.836546 205.000000 0 0 0 0
-73.855050 46.060139 206.000000 0 0 0 0
-73.415574 46.283732 207.000000 0 0 0 0
-65.250578 41.588281 186.000000 0 0 128 0
-70.084811 45.165767 202.000000 128 128 128 0
-69.306091 45.165767 202.000000 128 128 128 0
-68.527371 45.165767 202.000000 128 128 128 0
-67.748651 45.165767 202.000000 128 128 128 0
-66.969931 45.165767 202.000000 128 128 128 0
-66.191210 45.165767 202.000000 128 128 128 0
-65.412490 45.165767 202.000000 128 128 128 0
-64.633770 45.165767 202.000000 128 128 128 0
-63.855050 45.165767 202.000000 128 128 128 0
-63.076330 45.165767 202.000000 128 128 128 0
-62.297610 45.165767 202.000000 128 128 128 0
-61.518890 45.165767 202.000000 128 128 128 0
-60.740170 45.165767 202.000000 128 128 128 0
-59.961449 45.165767 202.000000 128 128 128 0
-59.182729 45.165767 202.000000 128 128 128 0
-58.404009 45.165767 202.000000 128 128 128 0
-57.625289 45.165767 202.000000 128 128 128 0
-56.846569 45.165767 202.000000 128 128 128 0
-56.067849 45.165767 202.000000 128 128 128 0
-55.289129 45.165767 202.000000 128 128 128 0
-54.510409 45.165767 202.000000 128 128 128 0
-53.731689 45.165767 202.000000 128 128 128 0
-52.952968 45.165767 202.000000 128 128 128 0
-52.174248 45.165767 202.000000 128 128 128 0
-51.395528 45.165767 202.000000 128 128 128 0
-50.616808 45.165767 202.000000 128 128 128 0
-49.838088 45.165767 202.000000 128 128 128 0
-49.059368 45.165767 202.000000 128 128 128 0
-48.280648 45.165767 202.000000 128 128 128 0
-47.501928 45.165767 202.000000 128 128 128 0
-46.723207 45.165767 202.000000 128 128 128 0
-45.944487 45.165767 202.000000 128 128 128 0
-45.165767 45.165767 202.000000 128 128 128 0
-44.387047 45.165767 202.000000 128 128 128 0
-43.608327 45.165767 202.000000 128 128 128 0
-42.829607 45.165767 202.000000 128 128 128 0
-42.050887 45.165767 202.000000 128 128 128 0
-41.272167 45.165767 202.000000 128 128 128 0
-40.493446 45.165767 202.000000 128 128 128 0
-39.911334 45.389360 203.000000 128 128 128 0
-39.128759 45.389360 203.000000 128 128 128 0
-36.268311 42.929838 192.000000 128 128 0 0
-35.528142 42.929838 192.000000 128 128 0 0
-25.185042 31.079414 139.000000 128 0 0 0
-24.649190 31.079414 139.000000 128 0 0 0
-24.113338 31.079414 139.000000 128 0 0 0
-23.577487 31.079414 139.000000 128 0 0 0
-23.041635 31.079414 139.000000 128 0 0 0
-22.505783 31.079414 139.000000 128 0 0 0
-21.969931 31.079414 139.000000 128 0 0 0
-21.434079 31.079414 139.000000 128 0 0 0
-20.898227 31.079414 139.000000 128 0 0 0
-20.362375 31.079414 139.000000 128 0 0 0
-19.826523 31.079414 139.000000 128 0 0 0
-19.290671 31.079414 139.000000 128 0 0 0
-18.754819 31.079414 139.000000 128 0 0 0
-18.218967 31.079414 139.000000 128 0 0 0
-17.683115 31.079414 139.000000 128 0 0 0
-17.147263 31.079414 139.000000 128 0 0 0
-16.611411 31.079414 139.000000 128 0 0 0
-16.075559 31.079414 139.000000 128 0 0 0
-15.539707 31.079414 139.000000 128 0 0 0
-15.003855 31.079414 139.000000 128 0 0 0
-14.468003 31.079414 139.000000 128 0 0 0
-13.932151 31.079414 139.000000 128 0 0 0
-13.396299 31.079414 139.000000 128 0 0 0
-12.860447 31.079414 139.000000 128 0 0 0
-12.324595 31.079414 139.000000 128 0 0 0
-11.788743 31.079414 139.000000 128 0 0 0
-11.252891 31.079414 139.000000 128 0 0 0
-10.717039 31.079414 139.000000 128 0 0 0
-10.181187 31.079414 139.000000 128 0 0 0
-9.645335 31.079414 139.000000 128 0 0 0
-9.109483 31.079414 139.000000 128 0 0 0
-8.573631 31.079414 139.000000 128 0 0 0
-8.037779 31.079414 139.000000 128 0 0 0
-7.501928 31.079414 139.000000 128 0 0 0
-6.966076 31.079414 139.000000 128 0 0 0
-6.430224 31.079414 139.000000 128 0 0 0
-5.894372 31.079414 139.000000 128 0 0 0
-5.358520 31.079414 139.000000 128 0 0 0
-4.822668 31.079414 139.000000 128 0 0 0
-4.286816 31.079414 139.000000 128 0 0 0
-3.750964 31.079414 139.000000 128 0 0 0
-3.215112 31.079414 139.000000 128 0 0 0
-2.679260 31.079414 139.000000 128 0 0 0
-2.143408 31.079414 139.000000 128 0 0 0
-1.607556 31.079414 139.000000 128 0 0 0
-1.071704 31.079414 139.000000 128 0 0 0
-0.535852 31.079414 139.000000 128 0 0 0
0.000000 28.843485 129.000000 192 0 0 0
0.497301 28.843485 129.000000 192 0 0 0
0.986893 28.619892 128.000000 192 0 0 0
2.104857 40.693909 182.000000 128 0 128 0
2.806476 40.693909 182.000000 128 0 128 0
3.508096 40.693909 182.000000 128 0 128 0
4.209715 40.693909 182.000000 128 0 128 0
4.938319 40.917502 183.000000 128 0 128 0
5.643793 40.917502 183.000000 128 0 128 0
6.349268 40.917502 183.000000 128 0 128 0
7.054742 40.917502 183.000000 128 0 128 0
7.760216 40.917502 183.000000 128 0 128 0
8.465690 40.917502 183.000000 128 0 128 0
9.171164 40.917502 183.000000 128 0 128 0
9.930609 41.141095 184.000000 128 0 128 0
10.639938 41.141095 184.000000 128 0 128 0
11.349268 41.141095 184.000000 128 0 128 0
12.713955 43.377024 194.000000 0 0 0 0
13.461835 43.377024 194.000000 0 0 0 0
14.282961 43.600617 195.000000 0 0 0 0
15.111796 43.824210 196.000000 0 0 0 0
15.867386 43.824210 196.000000 0 0 0 0
16.707787 44.047803 197.000000 0 0 0 0
17.467232 44.047803 197.000000 0 0 0 0
18.319198 44.271396 198.000000 0 0 0 0
19.082498 44.271396 198.000000 0 0 0 0
19.946029 44.494988 199.000000 0 0 0 0
19.255975 41.364688 185.000000 128 0 128 0
20.077101 41.588281 186.000000 128 0 128 0
20.794140 41.588281 186.000000 128 0 128 0
21.511180 41.588281 186.000000 128 0 128 0
22.228219 41.588281 186.000000 128 0 128 0
22.945258 41.588281 186.000000 128 0 128 0
23.662298 41.588281 186.000000 128 0 128 0
24.379337 41.588281 186.000000 128 0 128 0
25.096376 41.588281 186.000000 128 0 128 0
25.952197 41.811874 187.000000 128 0 128 0
26.673092 41.811874 187.000000 128 0 128 0
27.393986 41.811874 187.000000 64 0 128 0
28.265227 42.035466 188.000000 64 0 128 0
28.989977 42.035466 188.000000 64 0 128 0
29.872783 42.259059 189.000000 64 0 128 0
30.763300 42.482652 190.000000 64 0 128 0
31.661527 42.706245 191.000000 64 0 128 0
32.567463 42.929838 192.000000 64 0 128 0
33.307633 42.929838 192.000000 64 0 128 0
34.225135 43.153431 193.000000 64 0 128 0
35.150347 43.377024 194.000000 64 0 128 0
36.083269 43.600617 195.000000 64 0 128 0
36.835004 43.600617 195.000000 64 0 128 0
37.779491 43.824210 196.000000 64 0 128 0
38.731689 44.047803 197.000000 64 0 128 0
39.491133 44.047803 197.000000 64 0 128 0
40.454896 44.271396 198.000000 64 0 128 0
41.218196 44.271396 198.000000 64 0 128 0
42.193524 44.494988 199.000000 64 0 128 0
43.176561 44.718581 200.000000 64 0 128 0
43.947571 44.718581 200.000000 64 0 128 0
43.600617 43.600617 195.000000 192 128 0 0
44.579800 43.824210 196.000000 192 128 0 0
45.335389 43.824210 196.000000 192 128 0 0
46.090979 43.824210 196.000000 192 128 0 0
47.085582 44.047803 197.000000 192 128 0 0
47.845027 44.047803 197.000000 192 128 0 0
48.604472 44.047803 197.000000 192 128 0 0
49.614495 44.271396 198.000000 192 128 0 0
50.377795 44.271396 198.000000 192 128 0 0
51.141095 44.271396 198.000000 192 128 0 0
52.166538 44.494988 199.000000 192 128 0 0
52.933693 44.494988 199.000000 192 128 0 0
53.700848 44.494988 199.000000 192 128 0 0
54.468003 44.494988 199.000000 192 128 0 0
55.512722 44.718581 200.000000 192 128 0 0
56.283732 44.718581 200.000000 192 128 0 0
57.054742 44.718581 200.000000 192 128 0 0
58.114880 44.942174 201.000000 192 128 0 0
58.889746 44.942174 201.000000 192 128 0 0
59.664611 44.942174 201.000000 192 128 0 0
60.439476 44.942174 201.000000 192 128 0 0
61.518890 45.165767 202.000000 192 128 0 0
62.297610 45.165767 202.000000 192 128 0 0
63.076330 45.165767 202.000000 192 128 0 0
63.855050 45.165767 202.000000 192 128 0 0
64.953739 45.389360 203.000000 192 128 0 0
65.736315 45.389360 203.000000 192 128 0 0
66.518890 45.389360 203.000000 192 128 0 0
67.301465 45.389360 203.000000 192 128 0 0
68.419429 45.612953 204.000000 192 128 0 0
69.205860 45.612953 204.000000 192 128 0 0
69.992290 45.612953 204.000000 192 128 0 0
70.778720 45.612953 204.000000 192 128 0 0
71.915960 45.836546 205.000000 192 128 0 0
72.706245 45.836546 205.000000 192 128 0 0
73.496530 45.836546 205.000000 192 128 0 0
74.286816 45.836546 205.000000 192 128 0 0
75.443331 46.060139 206.000000 192 128 0 0
-96.222051 35.481881 156.000000 0 0 0 0
-100.524287 37.301465 164.000000 0 0 0 0
-99.892059 37.301465 164.000000 0 0 0 0
-99.865073 37.528913 165.000000 0 0 0 0
-109.452583 41.395528 182.000000 0 128 0 0
-108.153431 41.168080 181.000000 0 128 0 0
-107.455667 41.168080 181.000000 0 128 0 0
-106.168080 40.940632 180.000000 0 128 0 0
-105.474171 40.940632 180.000000 0 128 0 0
-104.780262 40.940632 180.000000 0 128 0 0
-103.508096 40.713184 179.000000 0 128 0 0
-113.731689 45.034695 198.000000 0 0 128 0
-112.968389 45.034695 198.000000 0 0 128 0
-111.638396 44.807247 197.000000 0 0 128 0
-110.878951 44.807247 197.000000 0 0 128 0
-110.119507 44.807247 197.000000 0 0 128 0
-109.360062 44.807247 197.000000 0 0 128 0
-108.600617 44.807247 197.000000 0 0 128 0
-107.841172 44.807247 197.000000 0 0 128 0
-106.538165 44.579800 196.000000 0 0 128 0
-105.782575 44.579800 196.000000 0 0 128 0
-105.026985 44.579800 196.000000 0 0 128 0
-104.271396 44.579800 196.000000 0 0 128 0
-103.515806 44.579800 196.000000 0 0 128 0
-102.235929 44.352352 195.000000 0 0 128 0
-101.484194 44.352352 195.000000 0 0 128 0
-100.732460 44.352352 195.000000 0 0 128 0
-99.980725 44.352352 195.000000 0 0 128 0
-99.228990 44.352352 195.000000 0 0 128 0
-98.477255 44.352352 195.000000 0 0 128 0
-97.224364 44.124904 194.000000 0 0 128 0
-96.476484 44.124904 194.000000 0 0 128 0
-95.728604 44.124904 194.000000 0 0 128 0
-94.980725 44.124904 194.000000 0 0 128 0
-94.232845 44.124904 194.000000 0 0 128 0
-93.003084 43.897456 193.000000 0 0 128 0
-92.259059 43.897456 193.000000 0 0 128 0
-91.515035 43.897456 193.000000 0 0 128 0
-90.771010 43.897456 193.000000 0 0 128 0
-90.026985 43.897456 193.000000 0 0 128 0
-89.282961 43.897456 193.000000 0 0 128 0
-88.080185 43.670008 192.000000 0 0 128 0
-87.340015 43.670008 192.000000 0 0 128 0
-86.599846 43.670008 192.000000 0 0 128 0
-85.859676 43.670008 192.000000 0 0 128 0
-85.119507 43.670008 192.000000 0 0 128 0
-83.939861 43.442560 191.000000 0 0 128 0
-83.203547 43.442560 191.000000 0 0 128 0
-82.467232 43.442560 191.000000 0 0 128 0
-81.730918 43.442560 191.000000 0 0 128 0
-80.994603 43.442560 191.000000 0 0 128 0
-79.838088 43.215112 190.000000 0 0 128 0
-79.105628 43.215112 190.000000 0 0 128 0
-78.373169 43.215112 190.000000 0 0 128 0
-77.640709 43.215112 190.000000 0 0 128 0
-76.503470 42.987664 189.000000 0 0 128 0
-75.774865 42.987664 189.000000 0 0 128 0
-75.046261 42.987664 189.000000 0 0 128 0
-74.317656 42.987664 189.000000 0 0 128 0
-73.589052 42.987664 189.000000 0 0 128 0
-72.474942 42.760216 188.000000 0 0 128 0
-71.750193 42.760216 188.000000 0 0 128 0
-71.025443 42.760216 188.000000 0 0 128 0
-70.300694 42.760216 188.000000 0 0 128 0
-75.497301 46.399383 204.000000 0 0 0 0
-75.077101 46.626831 205.000000 0 0 0 0
-74.286816 46.626831 205.000000 0 0 0 0
-73.855050 46.854279 206.000000 0 0 0 0
-73.770239 47.309175 208.000000 0 0 0 0
-72.968389 47.309175 208.000000 0 0 0 0
-64.533539 42.305320 186.000000 0 0 128 0
-69.306091 45.944487 202.000000 128 128 128 0
-68.527371 45.944487 202.000000 128 128 128 0
-67.748651 45.944487 202.000000 128 128 128 0
-66.969931 45.944487 202.000000 128 128 128 0
-66.191210 45.944487 202.000000 128 128 128 0
-65.412490 45.944487 202.000000 128 128 128 0
-64.633770 45.944487 202.000000 128 128 128 0
-63.855050 45.944487 202.000000 128 128 128 0
-63.388589 46.171935 203.000000 128 128 128 0
-62.606014 46.171935 203.000000 128 128 128 0
-61.823439 46.171935 203.000000 128 128 128 0
-61.040864 46.171935 203.000000 128 128 128 0
-60.258288 46.171935 203.000000 128 128 128 0
-59.475713 46.171935 203.000000 128 128 128 0
-58.693138 46.171935 203.000000 128 128 128 0
-57.910563 46.171935 203.000000 128 128 128 0
-57.127988 46.171935 203.000000 128 128 128 0
-56.345412 46.171935 203.000000 128 128 128 0
-55.562837 46.171935 203.000000 128 128 128 0
-54.780262 46.171935 203.000000 128 128 128 0
-53.997687 46.171935 203.000000 128 128 128 0
-53.215112 46.171935 203.000000 128 128 128 0
-52.432537 46.171935 203.000000 128 128 128 0
-51.649961 46.171935 203.000000 128 128 128 0
-50.867386 46.171935 203.000000 128 128 128 0
-50.084811 46.171935 203.000000 128 128 128 0
-49.302236 46.171935 203.000000 128 128 128 0
-48.519661 46.171935 203.000000 128 128 128 0
-47.737086 46.171935 203.000000 128 128 128 0
-46.954510 46.171935 203.000000 128 128 128 0
-46.171935 46.171935 203.000000 128 128 128 0
-45.389360 46.171935 203.000000 128 128 128 0
-44.606785 46.171935 203.000000 128 128 128 0
-43.824210 46.171935 203.000000 128 128 128 0
-43.041635 46.171935 203.000000 128 128 128 0
-42.259059 46.171935 203.000000 128 128 128 0
-41.476484 46.171935 203.000000 128 128 128 0
-40.693909 46.171935 203.000000 128 128 128 0
-39.911334 46.171935 203.000000 128 128 128 0
-39.128759 46.171935 203.000000 128 128 128 0
-36.268311 43.670008 192.000000 128 128 0 0
-35.528142 43.670008 192.000000 128 128 0 0
-34.787972 43.670008 192.000000 128 128 0 0
-24.649190 31.615266 139.000000 128 0 0 0
-24.113338 31.615266 139.000000 128 0 0 0
-23.577487 31.615266 139.000000 128 0 0 0
-23.041635 31.615266 139.000000 128 0 0 0
-22.505783 31.615266 139.000000 128 0 0 0
-21.969931 31.615266 139.000000 128 0 0 0
-21.434079 31.615266 139.000000 128 0 0 0
-20.898227 31.615266 139.000000 128 0 0 0
-20.362375 31.615266 139.000000 128 0 0 0
-19.826523 31.615266 139.000000 128 0 0 0
-19.290671 31.615266 139.000000 128 0 0 0
-18.754819 31.615266 139.000000 128 0 0 0
-18.218967 31.615266 139.000000 128 0 0 0
-17.683115 31.615266 139.000000 128 0 0 0
-17.147263 31.615266 139.000000 128 0 0 0
-16.611411 31.615266 139.000000 128 0 0 0
-16.075559 31.615266 139.000000 128 0 0 0
-15.539707 31.615266 139.000000 128 0 0 0
-15.003855 31.615266 139.000000 128 0 0 0
-14.468003 31.615266 139.000000 128 0 0 0
-13.932151 31.615266 139.000000 128 0 0 0
-13.396299 31.615266 139.000000 128 0 0 0
-12.860447 31.615266 139.000000 128 0 0 0
-12.324595 31.615266 139.000000 128 0 0 0
-11.788743 31.615266 139.000000 128 0 0 0
-11.252891 31.615266 139.000000 128 0 0 0
-10.717039 31.615266 139.000000 128 0 0 0
-10.181187 31.615266 139.000000 128 0 0 0
-9.645335 31.615266 139.000000 128 0 0 0
-9.109483 31.615266 139.000000 128 0 0 0
-8.573631 31.615266 139.000000 128 0 0 0
-8.037779 31.615266 139.000000 128 0 0 0
-7.501928 31.615266 139.000000 128 0 0 0
-6.966076 31.615266 139.000000 128 0 0 0
-6.430224 31.615266 139.000000 128 0 0 0
-5.894372 31.615266 139.000000 128 0 0 0
-5.358520 31.615266 139.000000 128 0 0 0
-4.822668 31.615266 139.000000 128 0 0 0
-4.286816 31.615266 139.000000 128 0 0 0
-3.750964 31.615266 139.000000 128 0 0 0
-3.215112 31.615266 139.000000 128 0 0 0
-2.679260 31.615266 139.000000 128 0 0 0
-2.143408 31.615266 139.000000 128 0 0 0
-1.607556 31.615266 139.000000 128 0 0 0
-1.071704 31.615266 139.000000 128 0 0 0
-0.535852 31.615266 139.000000 128 0 0 0
0.000000 29.340786 129.000000 192 0 0 0
0.497301 29.340786 129.000000 192 0 0 0
0.986893 29.113338 128.000000 192 0 0 0
2.104857 41.395528 182.000000 128 0 128 0
2.806476 41.395528 182.000000 128 0 128 0
3.527371 41.622976 183.000000 128 0 128 0
4.232845 41.622976 183.000000 128 0 128 0
4.938319 41.622976 183.000000 128 0 128 0
5.643793 41.622976 183.000000 128 0 128 0
6.349268 41.622976 183.000000 128 0 128 0
7.054742 41.622976 183.000000 128 0 128 0
7.802621 41.850424 184.000000 128 0 128 0
8.511951 41.850424 184.000000 128 0 128 0
9.221280 41.850424 184.000000 128 0 128 0
9.930609 41.850424 184.000000 128 0 128 0
11.218196 44.124904 194.000000 0 0 0 0
11.904395 43.897456 193.000000 0 0 0 0
12.648419 43.897456 193.000000 0 0 0 0
13.461835 44.124904 194.000000 0 0 0 0
14.209715 44.124904 194.000000 0 0 0 0
15.034695 44.352352 195.000000 0 0 0 0
15.786430 44.352352 195.000000 0 0 0 0
16.622976 44.579800 196.000000 0 0 0 0
17.378566 44.579800 196.000000 0 0 0 0
18.226677 44.807247 197.000000 0 0 0 0
18.986122 44.807247 197.000000 0 0 0 0
19.845798 45.034695 198.000000 0 0 0 0
20.609098 45.034695 198.000000 0 0 0 0
20.077101 42.305320 186.000000 128 0 128 0
20.794140 42.305320 186.000000 128 0 128 0
21.511180 42.305320 186.000000 128 0 128 0
22.228219 42.305320 186.000000 128 0 128 0
22.945258 42.305320 186.000000 128 0 128 0
23.662298 42.305320 186.000000 128 0 128 0
24.510409 42.532768 187.000000 128 0 128 0
25.231303 42.532768 187.000000 128 0 128 0
25.952197 42.532768 187.000000 128 0 128 0
26.673092 42.532768 187.000000 128 0 128 0
27.393986 42.532768 187.000000 64 0 128 0
28.265227 42.760216 188.000000 64 0 128 0
28.989977 42.760216 188.000000 64 0 128 0
29.872783 42.987664 189.000000 64 0 128 0
30.763300 43.215112 190.000000 64 0 128 0
31.661527 43.442560 191.000000 64 0 128 0
32.567463 43.670008 192.000000 64 0 128 0
33.307633 43.670008 192.000000 64 0 128 0
34.225135 43.897456 193.000000 64 0 128 0
35.150347 44.124904 194.000000 64 0 128 0
36.083269 44.352352 195.000000 64 0 128 0
36.835004 44.352352 195.000000 64 0 128 0
37.779491 44.579800 196.000000 64 0 128 0
38.731689 44.807247 197.000000 64 0 128 0
39.491133 44.807247 197.000000 64 0 128 0
40.454896 45.034695 198.000000 64 0 128 0
41.218196 45.034695 198.000000 64 0 128 0
42.193524 45.262143 199.000000 64 0 128 0
43.176561 45.489591 200.000000 64 0 128 0
43.947571 45.489591 200.000000 64 0 128 0
44.942174 45.717039 201.000000 64 0 128 0
44.579800 44.579800 196.000000 192 128 0 0
45.335389 44.579800 196.000000 192 128 0 0
46.090979 44.579800 196.000000 192 128 0 0
47.085582 44.807247 197.000000 192 128 0 0
47.845027 44.807247 197.000000 192 128 0 0
48.604472 44.807247 197.000000 192 128 0 0
49.614495 45.034695 198.000000 192 128 0 0
50.377795 45.034695 198.000000 192 128 0 0
51.141095 45.034695 198.000000 192 128 0 0
51.904395 45.034695 198.000000 192 128 0 0
52.933693 45.262143 199.000000 192 128 0 0
53.700848 45.262143 199.000000 192 128 0 0
54.468003 45.262143 199.000000 192 128 0 0
55.512722 45.489591 200.000000 192 128 0 0
56.283732 45.489591 200.000000 192 128 0 0
57.054742 45.489591 200.000000 192 128 0 0
58.114880 45.717039 201.000000 192 128 0 0
58.889746 45.717039 201.000000 192 128 0 0
59.664611 45.717039 201.000000 192 128 0 0
60.439476 45.717039 201.000000 192 128 0 0
61.518890 45.944487 202.000000 192 128 0 0
62.297610 45.944487 202.000000 192 128 0 0
63.076330 45.944487 202.000000 192 128 0 0
63.855050 45.944487 202.000000 192 128 0 0
64.953739 46.171935 203.000000 192 128 0 0
65.736315 46.171935 203.000000 192 128 0 0
66.518890 46.171935 203.000000 192 128 0 0
67.301465 46.171935 203.000000 192 128 0 0
68.419429 46.399383 204.000000 192 128 0 0
69.205860 46.399383 204.000000 192 128 0 0
69.992290 46.399383 204.000000 192 128 0 0
70.778720 46.399383 204.000000 192 128 0 0
71.915960 46.626831 205.000000 192 128 0 0
72.706245 46.626831 205.000000 192 128 0 0
73.496530 46.626831 205.000000 192 128 0 0
74.286816 46.626831 205.000000 192 128 0 0
75.443331 46.854279 206.000000 192 128 0 0
-95.605243 35.851966 155.000000 0 0 0 0
-100.524287 37.933693 164.000000 0 0 0 0
-99.892059 37.933693 164.000000 0 0 0 0
-99.259830 37.933693 164.000000 0 0 0 0
-109.452583 42.097147 182.000000 0 128 0 0
-108.153431 41.865844 181.000000 0 128 0 0
-107.455667 41.865844 181.000000 0 128 0 0
-106.168080 41.634541 180.000000 0 128 0 0
-105.474171 41.634541 180.000000 0 128 0 0
-104.780262 41.634541 180.000000 0 128 0 0
-103.508096 41.403238 179.000000 0 128 0 0
-113.731689 45.797995 198.000000 0 0 128 0
-112.968389 45.797995 198.000000 0 0 128 0
-111.638396 45.566692 197.000000 0 0 128 0
-110.878951 45.566692 197.000000 0 0 128 0
-110.119507 45.566692 197.000000 0 0 128 0
-109.360062 45.566692 197.000000 0 0 128 0
-108.600617 45.566692 197.000000 0 0 128 0
-107.841172 45.566692 197.000000 0 0 128 0
-106.538165 45.335389 196.000000 0 0 128 0
-105.782575 45.335389 196.000000 0 0 128 0
-105.026985 45.335389 196.000000 0 0 128 0
-104.271396 45.335389 196.000000 0 0 128 0
-103.515806 45.335389 196.000000 0 0 128 0
-102.760216 45.335389 196.000000 0 0 128 0
-101.484194 45.104086 195.000000 0 0 128 0
-100.732460 45.104086 195.000000 0 0 128 0
-99.980725 45.104086 195.000000 0 0 128 0
-99.228990 45.104086 195.000000 0 0 128 0
-98.477255 45.104086 195.000000 0 0 128 0
-97.224364 44.872783 194.000000 0 0 128 0
-96.476484 44.872783 194.000000 0 0 128 0
-95.728604 44.872783 194.000000 0 0 128 0
-94.980725 44.872783 194.000000 0 0 128 0
-94.232845 44.872783 194.000000 0 0 128 0
-93.484965 44.872783 194.000000 0 0 128 0
-92.259059 44.641480 193.000000 0 0 128 0
-91.515035 44.641480 193.000000 0 0 128 0
-90.771010 44.641480 193.000000 0 0 128 0
-90.026985 44.641480 193.000000 0 0 128 0
-89.282961 44.641480 193.000000 0 0 128 0
-88.080185 44.410177 192.000000 0 0 128 0
-87.340015 44.410177 192.000000 0 0 128 0
-86.599846 44.410177 192.000000 0 0 128 0
-85.859676 44.410177 192.000000 0 0 128 0
-85.119507 44.410177 192.000000 0 0 128 0
-83.939861 44.178874 191.000000 0 0 128 0
-83.203547 44.178874 191.000000 0 0 128 0
-82.467232 44.178874 191.000000 0 0 128 0
-81.730918 44.178874 191.000000 0 0 128 0
-80.994603 44.178874 191.000000 0 0 128 0
-79.838088 43.947571 190.000000 0 0 128 0
-79.105628 43.947571 190.000000 0 0 128 0
-78.373169 43.947571 190.000000 0 0 128 0
-77.640709 43.947571 190.000000 0 0 128 0
-76.908250 43.947571 190.000000 0 0 128 0
-75.774865 43.716268 189.000000 0 0 128 0
-75.046261 43.716268 189.000000 0 0 128 0
-74.317656 43.716268 189.000000 0 0 128 0
-73.589052 43.716268 189.000000 0 0 128 0
-72.474942 43.484965 188.000000 0 0 128 0
-71.750193 43.484965 188.000000 0 0 128 0
-71.025443 43.484965 188.000000 0 0 128 0
-70.300694 43.484965 188.000000 0 0 128 0
-75.127217 46.954510 203.000000 0 0 0 0
-75.077101 47.417116 205.000000 0 0 0 0
-74.286816 47.417116 205.000000 0 0 0 0
-73.496530 47.417116 205.000000 0 0 0 0
-73.415574 47.879722 207.000000 0 0 0 0
-72.968389 48.111025 208.000000 0 0 0 0
-64.533539 43.022359 186.000000 0 0 128 0
-69.649190 46.954510 203.000000 128 128 128 0
-68.866615 46.954510 203.000000 128 128 128 0
-68.084040 46.954510 203.000000 128 128 128 0
-67.301465 46.954510 203.000000 128 128 128 0
-66.518890 46.954510 203.000000 128 128 128 0
-65.736315 46.954510 203.000000 128 128 128 0
-64.953739 46.954510 203.000000 128 128 128 0
-64.171164 46.954510 203.000000 128 128 128 0
-63.388589 46.954510 203.000000 128 128 128 0
-62.606014 46.954510 203.000000 128 128 128 0
-61.823439 46.954510 203.000000 128 128 128 0
-61.040864 46.954510 203.000000 128 128 128 0
-60.258288 46.954510 203.000000 128 128 128 0
-59.475713 46.954510 203.000000 128 128 128 0
-58.693138 46.954510 203.000000 128 128 128 0
-57.910563 46.954510 203.000000 128 128 128 0
-57.127988 46.954510 203.000000 128 128 128 0
-56.345412 46.954510 203.000000 128 128 128 0
-55.562837 46.954510 203.000000 128 128 128 0
-54.780262 46.954510 203.000000 128 128 128 0
-53.997687 46.954510 203.000000 128 128 128 0
-53.215112 46.954510 203.000000 128 128 128 0
-52.432537 46.954510 203.000000 128 128 128 0
-51.649961 46.954510 203.000000 128 128 128 0
-50.867386 46.954510 203.000000 128 128 128 0
-50.084811 46.954510 203.000000 128 128 128 0
-49.302236 46.954510 203.000000 128 128 128 0
-48.519661 46.954510 203.000000 128 128 128 0
-47.737086 46.954510 203.000000 128 128 128 0
-46.954510 46.954510 203.000000 128 128 128 0
-46.171935 46.954510 203.000000 128 128 128 0
-45.389360 46.954510 203.000000 128 128 128 0
-44.606785 46.954510 203.000000 128 128 128 0
-43.824210 46.954510 203.000000 128 128 128 0
-43.041635 46.954510 203.000000 128 128 128 0
-42.259059 46.954510 203.000000 128 128 128 0
-41.476484 46.954510 203.000000 128 128 128 0
-40.693909 46.954510 203.000000 128 128 128 0
-39.911334 46.954510 203.000000 128 128 128 0
-37.008481 44.410177 192.000000 128 128 0 0
-36.268311 44.410177 192.000000 128 128 0 0
-35.528142 44.410177 192.000000 128 128 0 0
-34.787972 44.410177 192.000000 128 128 0 0
-34.047803 44.410177 192.000000 128 128 0 0
-24.113338 32.151118 139.000000 128 0 0 0
-23.577487 32.151118 139.000000 128 0 0 0
-23.041635 32.151118 139.000000 128 0 0 0
-22.505783 32.151118 139.000000 128 0 0 0
-21.969931 32.151118 139.000000 128 0 0 0
-21.434079 32.151118 139.000000 128 0 0 0
-20.898227 32.151118 139.000000 128 0 0 0
-20.362375 32.151118 139.000000 128 0 0 0
-19.826523 32.151118 139.000000 128 0 0 0
-19.290671 32.151118 139.000000 128 0 0 0
-18.754819 32.151118 139.000000 128 0 0 0
-18.218967 32.151118 139.000000 128 0 0 0
-17.683115 32.151118 139.000000 128 0 0 0
-17.147263 32.151118 139.000000 128 0 0 0
-16.611411 32.151118 139.000000 128 0 0 0
-16.075559 32.151118 139.000000 128 0 0 0
-15.539707 32.151118 139.000000 128 0 0 0
-15.003855 32.151118 139.000000 128 0 0 0
-14.468003 32.151118 139.000000 128 0 0 0
-13.932151 32.151118 139.000000 128 0 0 0
-13.396299 32.151118 139.000000 128 0 0 0
-12.860447 32.151118 139.000000 128 0 0 0
-12.324595 32.151118 139.000000 128 0 0 0
-11.788743 32.151118 139.000000 128 0 0 0
-11.252891 32.151118 139.000000 128 0 0 0
-10.717039 32.151118 139.000000 128 0 0 0
-10.181187 32.151118 139.000000 128 0 0 0
-9.645335 32.151118 139.000000 128 0 0 0
-9.109483 32.151118 139.000000 128 0 0 0
-8.573631 32.151118 139.000000 128 0 0 0
-8.037779 32.151118 139.000000 128 0 0 0
-7.501928 32.151118 139.000000 128 0 0 0
-6.966076 32.151118 139.000000 128 0 0 0
-6.430224 32.151118 139.000000 128 0 0 0
-5.894372 32.151118 139.000000 128 0 0 0
-5.358520 32.151118 139.000000 128 0 0 0
-4.822668 32.151118 139.000000 128 0 0 0
-4.286816 32.151118 139.000000 128 0 0 0
-3.750964 32.151118 139.000000 128 0 0 0
-3.215112 32.151118 139.000000 128 0 0 0
-2.679260 32.151118 139.000000 128 0 0 0
-2.143408 32.151118 139.000000 128 0 0 0
-1.607556 32.151118 139.000000 128 0 0 0
-1.071704 32.151118 139.000000 128 0 0 0
-0.535852 32.151118 139.000000 128 0 0 0
0.000000 29.838088 129.000000 192 0 0 0
0.497301 29.838088 129.000000 192 0 0 0
0.986893 29.606785 128.000000 192 0 0 0
2.116423 42.328450 183.000000 128 0 128 0
2.821897 42.328450 183.000000 128 0 128 0
3.527371 42.328450 183.000000 128 0 128 0
4.232845 42.328450 183.000000 128 0 128 0
4.938319 42.328450 183.000000 128 0 128 0
5.643793 42.328450 183.000000 128 0 128 0
6.383963 42.559753 184.000000 128 0 128 0
7.093292 42.559753 184.000000 128 0 128 0
7.802621 42.559753 184.000000 128 0 128 0
8.511951 42.559753 184.000000 128 0 128 0
9.221280 42.559753 184.000000 128 0 128 0
9.930609 42.559753 184.000000 128 0 128 0
11.160370 44.641480 193.000000 0 0 0 0
11.842714 44.410177 192.000000 0 0 0 0
12.582884 44.410177 192.000000 0 0 0 0
13.323053 44.410177 192.000000 0 0 0 0
14.136469 44.641480 193.000000 0 0 0 0
14.957594 44.872783 194.000000 0 0 0 0
15.705474 44.872783 194.000000 0 0 0 0
16.453354 44.872783 194.000000 0 0 0 0
17.289900 45.104086 195.000000 0 0 0 0
18.134156 45.335389 196.000000 0 0 0 0
18.889746 45.335389 196.000000 0 0 0 0
19.645335 45.335389 196.000000 0 0 0 0
20.400925 45.335389 196.000000 0 0 0 0
20.077101 43.022359 186.000000 128 0 128 0
20.794140 43.022359 186.000000 128 0 128 0
21.511180 43.022359 186.000000 128 0 128 0
22.347726 43.253662 187.000000 128 0 128 0
23.068620 43.253662 187.000000 128 0 128 0
23.789514 43.253662 187.000000 128 0 128 0
24.510409 43.253662 187.000000 128 0 128 0
25.231303 43.253662 187.000000 128 0 128 0
25.952197 43.253662 187.000000 128 0 128 0
26.673092 43.253662 187.000000 128 0 128 0
27.393986 43.253662 187.000000 64 0 128 0
28.265227 43.484965 188.000000 64 0 128 0
29.144179 43.716268 189.000000 64 0 128 0
29.872783 43.716268 189.000000 64 0 128 0
30.763300 43.947571 190.000000 64 0 128 0
31.661527 44.178874 191.000000 64 0 128 0
32.567463 44.410177 192.000000 64 0 128 0
33.307633 44.410177 192.000000 64 0 128 0
34.225135 44.641480 193.000000 64 0 128 0
35.150347 44.872783 194.000000 64 0 128 0
36.083269 45.104086 195.000000 64 0 128 0
36.835004 45.104086 195.000000 64 0 128 0
37.779491 45.335389 196.000000 64 0 128 0
38.731689 45.566692 197.000000 64 0 128 0
39.491133 45.566692 197.000000 64 0 128 0
40.454896 45.797995 198.000000 64 0 128 0
41.426369 46.029298 199.000000 64 0 128 0
42.193524 46.029298 199.000000 64 0 128 0
43.176561 46.260601 200.000000 64 0 128 0
43.947571 46.260601 200.000000 64 0 128 0
44.942174 46.491904 201.000000 64 0 128 0
44.579800 45.335389 196.000000 192 128 0 0
45.335389 45.335389 196.000000 192 128 0 0
46.090979 45.335389 196.000000 192 128 0 0
47.085582 45.566692 197.000000 192 128 0 0
47.845027 45.566692 197.000000 192 128 0 0
48.604472 45.566692 197.000000 192 128 0 0
49.614495 45.797995 198.000000 192 128 0 0
50.377795 45.797995 198.000000 192 128 0 0
51.141095 45.797995 198.000000 192 128 0 0
51.904395 45.797995 198.000000 192 128 0 0
52.933693 46.029298 199.000000 192 128 0 0
53.700848 46.029298 199.000000 192 128 0 0
54.468003 46.029298 199.000000 192 128 0 0
55.512722 46.260601 200.000000 192 128 0 0
56.283732 46.260601 200.000000 192 128 0 0
57.054742 46.260601 200.000000 192 128 0 0
57.825752 46.260601 200.000000 192 128 0 0
58.889746 46.491904 201.000000 192 128 0 0
59.664611 46.491904 201.000000 192 128 0 0
60.439476 46.491904 201.000000 192 128 0 0
61.518890 46.723207 202.000000 192 128 0 0
62.297610 46.723207 202.000000 192 128 0 0
63.076330 46.723207 202.000000 192 128 0 0
63.855050 46.723207 202.000000 192 128 0 0
64.953739 46.954510 203.000000 192 128 0 0
65.736315 46.954510 203.000000 192 128 0 0
66.518890 46.954510 203.000000 192 128 0 0
67.301465 46.954510 203.000000 192 128 0 0
68.419429 47.185813 204.000000 192 128 0 0
69.205860 47.185813 204.000000 192 128 0 0
69.992290 47.185813 204.000000 192 128 0 0
70.778720 47.185813 204.000000 192 128 0 0
71.915960 47.417116 205.000000 192 128 0 0
72.706245 47.417116 205.000000 192 128 0 0
73.496530 47.417116 205.000000 192 128 0 0
74.286816 47.417116 205.000000 192 128 0 0
75.443331 47.648419 206.000000 192 128 0 0
-95.605243 36.449499 155.000000 0 0 0 0
-100.524287 38.565921 164.000000 0 0 0 0
-99.282961 38.330763 163.000000 0 0 0 0
-99.259830 38.565921 164.000000 0 0 0 0
-109.452583 42.798766 182.000000 0 128 0 0
-108.153431 42.563608 181.000000 0 128 0 0
-107.455667 42.563608 181.000000 0 128 0 0
-106.168080 42.328450 180.000000 0 128 0 0
-105.474171 42.328450 180.000000 0 128 0 0
-104.780262 42.328450 180.000000 0 128 0 0
-103.508096 42.093292 179.000000 0 128 0 0
-113.731689 46.561295 198.000000 0 0 128 0
-112.968389 46.561295 198.000000 0 0 128 0
-111.638396 46.326137 197.000000 0 0 128 0
-110.878951 46.326137 197.000000 0 0 128 0
-110.119507 46.326137 197.000000 0 0 128 0
-109.360062 46.326137 197.000000 0 0 128 0
-108.600617 46.326137 197.000000 0 0 128 0
-107.841172 46.326137 197.000000 0 0 128 0
-106.538165 46.090979 196.000000 0 0 128 0
-105.782575 46.090979 196.000000 0 0 128 0
-105.026985 46.090979 196.000000 0 0 128 0
-104.271396 46.090979 196.000000 0 0 128 0
-103.515806 46.090979 196.000000 0 0 128 0
-102.760216 46.090979 196.000000 0 0 128 0
-101.484194 45.855821 195.000000 0 0 128 0
-100.732460 45.855821 195.000000 0 0 128 0
-99.980725 45.855821 195.000000 0 0 128 0
-99.228990 45.855821 195.000000 0 0 128 0
-98.477255 45.855821 195.000000 0 0 128 0
-97.725520 45.855821 195.000000 0 0 128 0
-96.476484 45.620663 194.000000 0 0 128 0
-95.728604 45.620663 194.000000 0 0 128 0
-94.980725 45.620663 194.000000 0 0 128 0
-94.232845 45.620663 194.000000 0 0 128 0
-93.484965 45.620663 194.000000 0 0 128 0
-92.259059 45.385505 193.000000 0 0 128 0
-91.515035 45.385505 193.000000 0 0 128 0
-90.771010 45.385505 193.000000 0 0 128 0
-90.026985 45.385505 193.000000 0 0 128 0
-89.282961 45.385505 193.000000 0 0 128 0
-88.080185 45.150347 192.000000 0 0 128 0
-87.340015 45.150347 192.000000 0 0 128 0
-86.599846 45.150347 192.000000 0 0 128 0
-85.859676 45.150347 192.000000 0 0 128 0
-85.119507 45.150347 192.000000 0 0 128 0
-83.939861 44.915189 191.000000 0 0 128 0
-83.203547 44.915189 191.000000 0 0 128 0
-82.467232 44.915189 191.000000 0 0 128 0
-81.730918 44.915189 191.000000 0 0 128 0
-80.994603 44.915189 191.000000 0 0 128 0
-79.838088 44.680031 190.000000 0 0 128 0
-79.105628 44.680031 190.000000 0 0 128 0
-78.373169 44.680031 190.000000 0 0 128 0
-77.640709 44.680031 190.000000 0 0 128 0
-76.908250 44.680031 190.000000 0 0 128 0
-75.774865 44.444873 189.000000 0 0 128 0
-75.046261 44.444873 189.000000 0 0 128 0
-74.317656 44.444873 189.000000 0 0 128 0
-73.589052 44.444873 189.000000 0 0 128 0
-72.474942 44.209715 188.000000 0 0 128 0
-71.750193 44.209715 188.000000 0 0 128 0
-71.025443 44.209715 188.000000 0 0 128 0
-70.300694 44.209715 188.000000 0 0 128 0
-75.127217 47.737086 203.000000 0 0 0 0
-74.710871 47.972244 204.000000 0 0 0 0
-74.286816 48.207402 205.000000 0 0 0 0
-73.496530 48.207402 205.000000 0 0 0 0
-73.415574 48.677718 207.000000 0 0 0 0
-65.250578 43.739399 186.000000 0 0 128 0
-64.533539 43.739399 186.000000 0 0 128 0
-63.816500 43.739399 186.000000 0 0 128 0
-68.866615 47.737086 203.000000 128 128 128 0
-68.084040 47.737086 203.000000 128 128 128 0
-67.301465 47.737086 203.000000 128 128 128 0
-66.518890 47.737086 203.000000 128 128 128 0
-65.736315 47.737086 203.000000 128 128 128 0
-64.953739 47.737086 203.000000 128 128 128 0
-64.171164 47.737086 203.000000 128 128 128 0
-63.388589 47.737086 203.000000 128 128 128 0
-62.606014 47.737086 203.000000 128 128 128 0
-61.823439 47.737086 203.000000 128 128 128 0
-61.040864 47.737086 203.000000 128 128 128 0
-60.258288 47.737086 203.000000 128 128 128 0
-59.475713 47.737086 203.000000 128 128 128 0
-58.693138 47.737086 203.000000 128 128 128 0
-57.910563 47.737086 203.000000 128 128 128 0
-57.127988 47.737086 203.000000 128 128 128 0
-56.345412 47.737086 203.000000 128 128 128 0
-55.562837 47.737086 203.000000 128 128 128 0
-54.780262 47.737086 203.000000 128 128 128 0
-53.997687 47.737086 203.000000 128 128 128 0
-53.215112 47.737086 203.000000 128 128 128 0
-52.432537 47.737086 203.000000 128 128 128 0
-51.649961 47.737086 203.000000 128 128 128 0
-50.867386 47.737086 203.000000 128 128 128 0
-50.084811 47.737086 203.000000 128 128 128 0
-49.302236 47.737086 203.000000 128 128 128 0
-48.519661 47.737086 203.000000 128 128 128 0
-47.737086 47.737086 203.000000 128 128 128 0
-46.954510 47.737086 203.000000 128 128 128 0
-46.171935 47.737086 203.000000 128 128 128 0
-45.389360 47.737086 203.000000 128 128 128 0
-44.606785 47.737086 203.000000 128 128 128 0
-43.824210 47.737086 203.000000 128 128 128 0
-43.041635 47.737086 203.000000 128 128 128 0
-42.259059 47.737086 203.000000 128 128 128 0
-41.476484 47.737086 203.000000 128 128 128 0
-40.693909 47.737086 203.000000 128 128 128 0
-39.911334 47.737086 203.000000 128 128 128 0
-37.008481 45.150347 192.000000 128 128 0 0
-36.268311 45.150347 192.000000 128 128 0 0
-35.528142 45.150347 192.000000 128 128 0 0
-34.969160 45.385505 193.000000 128 128 0 0
-34.225135 45.385505 193.000000 128 128 0 0
-24.113338 32.686970 139.000000 128 0 0 0
-23.577487 32.686970 139.000000 128 0 0 0
-23.041635 32.686970 139.000000 128 0 0 0
-22.505783 32.686970 139.000000 128 0 0 0
-21.969931 32.686970 139.000000 128 0 0 0
-21.434079 32.686970 139.000000 128 0 0 0
-20.898227 32.686970 139.000000 128 0 0 0
-20.362375 32.686970 139.000000 128 0 0 0
-19.826523 32.686970 139.000000 128 0 0 0
-19.290671 32.686970 139.000000 128 0 0 0
-18.754819 32.686970 139.000000 128 0 0 0
-18.218967 32.686970 139.000000 128 0 0 0
-17.683115 32.686970 139.000000 128 0 0 0
-17.147263 32.686970 139.000000 128 0 0 0
-16.611411 32.686970 139.000000 128 0 0 0
-16.075559 32.686970 139.000000 128 0 0 0
-15.539707 32.686970 139.000000 128 0 0 0
-15.003855 32.686970 139.000000 128 0 0 0
-14.468003 32.686970 139.000000 128 0 0 0
-13.932151 32.686970 139.000000 128 0 0 0
-13.396299 32.686970 139.000000 128 0 0 0
-12.860447 32.686970 139.000000 128 0 0 0
-12.324595 32.686970 139.000000 128 0 0 0
-11.788743 32.686970 139.000000 128 0 0 0
-11.252891 32.686970 139.000000 128 0 0 0
-10.717039 32.686970 139.000000 128 0 0 0
-10.181187 32.686970 139.000000 128 0 0 0
-9.645335 32.686970 139.000000 128 0 0 0
-9.109483 32.686970 139.000000 128 0 0 0
-8.573631 32.686970 139.000000 128 0 0 0
-8.037779 32.686970 139.000000 128 0 0 0
-7.501928 32.686970 139.000000 128 0 0 0
-6.966076 32.686970 139.000000 128 0 0 0
-6.430224 32.686970 139.000000 128 0 0 0
-5.894372 32.686970 139.000000 128 0 0 0
-5.358520 32.686970 139.000000 128 0 0 0
-4.822668 32.686970 139.000000 128 0 0 0
-4.286816 32.686970 139.000000 128 0 0 0
-3.750964 32.686970 139.000000 128 0 0 0
-3.215112 32.686970 139.000000 128 0 0 0
-2.679260 32.686970 139.000000 128 0 0 0
-2.143408 32.686970 139.000000 128 0 0 0
-1.607556 32.686970 139.000000 128 0 0 0
-1.071704 32.686970 139.000000 128 0 0 0
-0.497301 30.335389 129.000000 192 0 0 0
0.000000 30.335389 129.000000 192 0 0 0
0.497301 30.335389 129.000000 192 0 0 0
0.986893 30.100231 128.000000 192 0 0 0
1.480339 30.100231 128.000000 192 0 0 0
2.821897 43.033924 183.000000 128 0 128 0
3.527371 43.033924 183.000000 128 0 128 0
4.232845 43.033924 183.000000 128 0 128 0
4.965305 43.269082 184.000000 128 0 128 0
5.674634 43.269082 184.000000 128 0 128 0
6.383963 43.269082 184.000000 128 0 128 0
7.093292 43.269082 184.000000 128 0 128 0
7.802621 43.269082 184.000000 128 0 128 0
8.511951 43.269082 184.000000 128 0 128 0
9.221280 43.269082 184.000000 128 0 128 0
10.362375 45.150347 192.000000 0 0 0 0
11.102544 45.150347 192.000000 0 0 0 0
11.781033 44.915189 191.000000 0 0 0 0
12.517348 44.915189 191.000000 0 0 0 0
13.323053 45.150347 192.000000 0 0 0 0
14.136469 45.385505 193.000000 0 0 0 0
14.880493 45.385505 193.000000 0 0 0 0
15.624518 45.385505 193.000000 0 0 0 0
16.368543 45.385505 193.000000 0 0 0 0
17.201234 45.620663 194.000000 0 0 0 0
17.949113 45.620663 194.000000 0 0 0 0
18.793369 45.855821 195.000000 0 0 0 0
19.545104 45.855821 195.000000 0 0 0 0
20.296839 45.855821 195.000000 0 0 0 0
20.077101 43.739399 186.000000 128 0 128 0
20.905937 43.974557 187.000000 128 0 128 0
21.626831 43.974557 187.000000 128 0 128 0
22.347726 43.974557 187.000000 128 0 128 0
23.068620 43.974557 187.000000 128 0 128 0
23.789514 43.974557 187.000000 128 0 128 0
