ply
                       format ascii 1.0
                       element vertex 49152
                       property float x
                       property float y
                       property float z
                       property uchar red
                       property uchar green
                       property uchar blue
                       property uchar alpha
                       end_header
-1.150271 0.247558 1.563137 0 128 0 0
-1.148203 0.249033 1.572450 0 128 0 0
-1.188393 0.259768 1.640234 0 0 0 0
-1.181142 0.260221 1.643092 0 0 0 0
-1.169432 0.259691 1.639743 0 0 0 0
-1.163045 0.260343 1.643864 0 0 0 0
-1.162357 0.262293 1.656172 0 0 0 0
-1.163139 0.264608 1.670792 0 0 0 0
-1.159406 0.265926 1.679114 0 0 0 0
-1.151271 0.266248 1.681144 0 0 0 0
-1.142373 0.266397 1.682086 0 0 0 0
-1.135045 0.266918 1.685375 0 0 0 0
-1.128952 0.267740 1.690570 0 0 0 0
-1.122174 0.268413 1.694818 0 0 0 0
-1.115284 0.269071 1.698970 0 0 0 0
-1.105376 0.269005 1.698556 0 0 0 0
-1.092537 0.268219 1.693591 0 0 0 0
-1.084072 0.268502 1.695380 0 0 0 0
-1.080509 0.270015 1.704935 0 0 0 0
-1.076113 0.271346 1.713336 0 0 0 0
-1.072069 0.272790 1.722456 0 0 0 0
-1.071063 0.275041 1.736669 0 0 0 0
-1.069350 0.277151 1.749990 0 0 0 0
-1.065828 0.278827 1.760571 0 0 0 0
-1.062282 0.280528 1.771314 0 0 0 0
-1.058608 0.282228 1.782046 0 0 0 0
-1.053763 0.283645 1.790995 0 0 0 0
-1.048748 0.285043 1.799825 0 0 0 0
-1.044939 0.286801 1.810922 0 0 0 0
-1.043398 0.289221 1.826205 0 0 0 0
-1.041913 0.291706 1.841896 0 0 0 0
-1.037125 0.293307 1.852006 0 0 0 0
-1.030210 0.294334 1.858486 0 0 0 0
-1.022259 0.295082 1.863211 0 0 0 0
-1.014210 0.295817 1.867855 0 0 0 0
-1.004891 0.296194 1.870233 0 0 0 0
-0.991193 0.295275 1.864427 0 0 0 0
-0.978159 0.294535 1.859756 0 0 0 0
-0.972352 0.295979 1.868873 0 0 0 0
-0.976734 0.300590 1.897992 0 0 0 0
-0.982466 0.305725 1.930412 0 0 0 0
-0.981270 0.308795 1.949797 0 0 0 0
-1.035346 0.329527 2.080702 0 128 0 0
-1.031675 0.332145 2.097235 0 128 0 0
-1.027945 0.334806 2.114034 0 128 0 0
-1.024154 0.337509 2.131104 0 128 0 0
-1.020302 0.340256 2.148451 0 128 0 0
-1.016387 0.343049 2.166083 0 128 0 0
-1.012407 0.345887 2.184007 0 128 0 0
-1.008360 0.348774 2.202231 0 128 0 0
-1.004246 0.351708 2.220760 0 128 0 0
-0.707812 0.251040 1.585123 128 128 128 0
-0.698612 0.250966 1.584651 128 128 128 0
-0.689416 0.250891 1.584180 128 128 128 0
-0.680227 0.250817 1.583709 128 128 128 0
-0.942003 0.351989 2.222537 0 0 0 0
-0.935232 0.354200 2.236498 0 0 0 0
-0.923864 0.354707 2.239698 0 0 0 0
-0.915287 0.356315 2.249848 0 0 0 0
-0.909403 0.359031 2.266999 0 0 0 0
-0.904563 0.362244 2.287284 0 0 0 0
-0.891974 0.362401 2.288277 0 0 0 0
-0.865235 0.356729 2.252462 0 0 0 0
-0.833557 0.348820 2.202526 0 0 0 0
-0.799767 0.339773 2.145402 0 0 0 0
-0.774735 0.334225 2.110371 0 0 0 0
-0.746073 0.326913 2.064197 0 0 0 0
-0.726794 0.323544 2.042924 0 0 0 0
-0.722192 0.326705 2.062883 0 0 0 0
-0.718827 0.330539 2.087095 0 0 0 0
-0.700134 0.327335 2.066866 0 0 0 0
-0.666111 0.316733 1.999920 0 0 0 0
-0.629448 0.304486 1.922592 0 0 0 0
-0.600471 0.295592 1.866429 0 0 0 0
-0.578443 0.289859 1.830233 0 0 0 0
-0.566700 0.289166 1.825854 0 0 0 0
-0.557891 0.289971 1.830940 0 0 0 0
-0.549295 0.290920 1.836931 0 0 0 0
-0.539556 0.291288 1.839257 0 0 0 0
-0.528558 0.290978 1.837299 0 0 0 0
-0.515889 0.289717 1.829338 0 0 0 0
-0.503046 0.288305 1.820419 0 0 0 0
-0.492755 0.288326 1.820552 0 0 0 0
-0.484591 0.289620 1.828723 0 0 0 0
-0.483965 0.295574 1.866315 0 0 0 0
-0.494088 0.308506 1.947974 0 0 0 0
-0.444752 0.284054 1.793578 128 128 0 0
-0.434490 0.283998 1.793224 128 128 0 0
-0.424233 0.283942 1.792870 128 128 0 0
-0.413980 0.283886 1.792515 128 128 0 0
-0.403730 0.283830 1.792161 128 128 0 0
-0.393485 0.283774 1.791808 128 128 0 0
-0.383244 0.283718 1.791454 128 128 0 0
-0.373007 0.283662 1.791101 128 128 0 0
-0.362774 0.283606 1.790747 128 128 0 0
-0.352545 0.283550 1.790394 128 128 0 0
-0.342320 0.283494 1.790041 128 128 0 0
-0.332099 0.283438 1.789688 128 128 0 0
-0.321882 0.283382 1.789335 128 128 0 0
-0.311669 0.283326 1.788983 128 128 0 0
-0.301460 0.283270 1.788630 128 128 0 0
-0.291256 0.283215 1.788278 128 128 0 0
-0.281055 0.283159 1.787926 128 128 0 0
-0.270858 0.283103 1.787574 128 128 0 0
-0.260665 0.283047 1.787221 128 128 0 0
-0.250476 0.282992 1.786870 128 128 0 0
-0.240292 0.282936 1.786518 128 128 0 0
-0.230111 0.282880 1.786167 128 128 0 0
-0.219934 0.282825 1.785815 128 128 0 0
-0.209761 0.282769 1.785464 128 128 0 0
-0.199593 0.282713 1.785113 128 128 0 0
-0.189428 0.282658 1.784762 128 128 0 0
-0.179267 0.282602 1.784411 128 128 0 0
-0.169110 0.282547 1.784060 128 128 0 0
-0.158958 0.282491 1.783710 128 128 0 0
-0.148809 0.282436 1.783359 128 128 0 0
-0.138664 0.282380 1.783009 128 128 0 0
-0.128523 0.282325 1.782659 128 128 0 0
-0.118386 0.282269 1.782309 128 128 0 0
-0.108254 0.282214 1.781959 128 128 0 0
-0.098125 0.282158 1.781609 128 128 0 0
-0.088000 0.282103 1.781259 128 128 0 0
-0.077879 0.282048 1.780910 128 128 0 0
-0.067762 0.281992 1.780561 128 128 0 0
-0.057649 0.281937 1.780211 128 128 0 0
-0.047540 0.281882 1.779862 128 128 0 0
-0.037435 0.281827 1.779513 128 128 0 0
-0.027334 0.281771 1.779165 128 128 0 0
-0.017237 0.281716 1.778816 128 128 0 0
-0.007144 0.281661 1.778468 128 128 0 0
0.002946 0.281606 1.778119 128 128 0 0
0.013031 0.281551 1.777771 128 128 0 0
0.023112 0.281495 1.777423 128 128 0 0
0.033190 0.281440 1.777075 128 128 0 0
0.043263 0.281385 1.776727 128 128 0 0
0.053332 0.281330 1.776379 128 128 0 0
0.086547 0.383980 2.424534 192 0 0 0
0.100564 0.384983 2.430868 192 0 0 0
0.114655 0.385992 2.437235 192 0 0 0
0.128820 0.387006 2.443637 192 0 0 0
0.143059 0.388025 2.450071 192 0 0 0
0.157373 0.389049 2.456540 192 0 0 0
0.171764 0.390079 2.463043 192 0 0 0
0.186230 0.391114 2.469580 192 0 0 0
0.200774 0.392155 2.476153 192 0 0 0
0.215395 0.393202 2.482760 192 0 0 0
0.230094 0.394254 2.489403 192 0 0 0
0.244873 0.395311 2.496081 192 0 0 0
0.259730 0.396375 2.502795 192 0 0 0
0.274668 0.397444 2.509546 192 0 0 0
0.289687 0.398519 2.516333 192 0 0 0
0.304787 0.399599 2.523157 192 0 0 0
0.319970 0.400686 2.530018 192 0 0 0
0.335235 0.401779 2.536916 192 0 0 0
0.350584 0.402877 2.543852 192 0 0 0
0.366016 0.403982 2.550826 192 0 0 0
0.381534 0.405092 2.557838 192 0 0 0
0.397137 0.406209 2.564890 192 0 0 0
0.412827 0.407332 2.571980 192 0 0 0
0.428603 0.408461 2.579109 192 0 0 0
0.444467 0.409596 2.586278 192 0 0 0
0.460420 0.410738 2.593487 192 0 0 0
0.476461 0.411886 2.600737 192 0 0 0
0.492593 0.413041 2.608027 192 0 0 0
0.508815 0.414202 2.615357 192 0 0 0
0.525129 0.415369 2.622730 192 0 0 0
0.541535 0.416543 2.630143 192 0 0 0
0.558034 0.417724 2.637599 192 0 0 0
0.574627 0.418912 2.645098 192 0 0 0
0.591315 0.420106 2.652639 192 0 0 0
0.608098 0.421307 2.660223 192 0 0 0
0.624977 0.422515 2.667851 192 0 0 0
0.641953 0.423730 2.675523 192 0 0 0
0.659027 0.424952 2.683238 192 0 0 0
0.676200 0.426181 2.690999 192 0 0 0
0.693473 0.427417 2.698804 192 0 0 0
0.710846 0.428661 2.706655 192 0 0 0
0.728320 0.429911 2.714552 192 0 0 0
0.745897 0.431169 2.722495 192 0 0 0
0.763576 0.432435 2.730484 192 0 0 0
0.545935 0.303031 1.913401 0 128 128 0
0.547279 0.297854 1.880713 0 128 128 0
0.548577 0.292851 1.849123 0 128 128 0
0.549832 0.288013 1.818577 0 128 128 0
0.551046 0.283333 1.789023 0 128 128 0
0.552222 0.278802 1.760415 0 128 128 0
0.553361 0.274414 1.732707 0 128 128 0
0.554464 0.270162 1.705858 0 128 128 0
0.555534 0.266039 1.679828 0 128 128 0
0.556571 0.262041 1.654581 0 128 128 0
0.557578 0.258161 1.630082 0 128 128 0
0.558555 0.254394 1.606297 0 128 128 0
0.559504 0.250735 1.583197 0 128 128 0
0.560427 0.247181 1.560751 0 128 128 0
0.561323 0.243725 1.538934 0 128 128 0
0.562195 0.240365 1.517717 0 128 128 0
0.563043 0.237096 1.497078 0 128 128 0
0.563869 0.233915 1.476992 0 128 128 0
0.564672 0.230819 1.457438 0 128 128 0
0.565455 0.227803 1.438396 0 128 128 0
0.566217 0.224865 1.419844 0 128 128 0
0.566960 0.222001 1.401765 0 128 128 0
0.567684 0.219210 1.384141 0 128 128 0
0.568391 0.216488 1.366954 0 128 128 0
0.569079 0.213833 1.350189 0 128 128 0
0.569752 0.211242 1.333830 0 128 128 0
0.546017 0.199789 1.261511 0 0 0 0
0.553015 0.199732 1.261149 0 0 0 0
0.559838 0.199613 1.260401 0 0 0 0
0.565088 0.198944 1.256176 0 0 0 0
0.569553 0.198019 1.250333 0 0 0 0
0.574449 0.197264 1.245568 0 0 0 0
0.579521 0.196588 1.241296 0 0 0 0
0.584965 0.196052 1.237912 0 0 0 0
0.591562 0.195911 1.237022 0 0 0 0
0.598077 0.195746 1.235983 0 0 0 0
0.603720 0.195303 1.233186 0 0 0 0
0.609571 0.194937 1.230874 0 0 0 0
0.615824 0.194706 1.229416 0 0 0 0
0.618994 0.193517 1.221905 0 0 0 0
0.618373 0.191181 1.207160 0 0 0 0
0.615247 0.188131 1.187901 0 0 0 0
0.612595 0.185291 1.169965 0 0 0 0
0.611608 0.183009 1.155559 0 0 0 0
0.609522 0.180451 1.139405 0 0 0 0
0.606198 0.177583 1.121299 0 0 0 0
0.602750 0.174739 1.103343 0 0 0 0
0.601438 0.172567 1.089626 0 0 0 0
0.603162 0.171301 1.081632 0 0 0 0
0.606552 0.170529 1.076756 0 0 0 0
0.495901 0.138030 0.871551 64 0 128 0
0.496723 0.136894 0.864376 64 0 128 0
0.497531 0.135776 0.857319 64 0 128 0
0.498327 0.134676 0.850376 64 0 128 0
0.584003 0.156318 0.987024 0 128 128 0
0.584363 0.154929 0.978253 0 128 128 0
0.584717 0.153564 0.969637 0 128 128 0
0.585065 0.152223 0.961171 0 128 128 0
0.585407 0.150906 0.952852 0 128 128 0
0.585743 0.149611 0.944675 0 128 128 0
0.586073 0.148338 0.936638 0 128 128 0
-1.389789 0.276062 1.692855 0 0 0 0
-1.176599 0.235341 1.443149 0 128 0 0
-1.174836 0.236635 1.451083 0 128 0 0
-1.173052 0.237943 1.459105 0 128 0 0
-1.171250 0.239266 1.467217 0 128 0 0
-1.169427 0.240603 1.475419 0 128 0 0
-1.167583 0.241956 1.483713 0 128 0 0
-1.165719 0.243324 1.492101 0 128 0 0
-1.163833 0.244707 1.500584 0 128 0 0
-1.161926 0.246106 1.509165 0 128 0 0
-1.159997 0.247522 1.517844 0 128 0 0
-1.158045 0.248953 1.526623 0 128 0 0
-1.156071 0.250402 1.535505 0 128 0 0
-1.154074 0.251867 1.544490 0 128 0 0
-1.152053 0.253350 1.553582 0 128 0 0
-1.150009 0.254850 1.562780 0 128 0 0
-1.147940 0.256368 1.572089 0 128 0 0
-1.188446 0.267492 1.640307 0 0 0 0
-1.182057 0.268154 1.644364 0 0 0 0
-1.170915 0.267739 1.641822 0 0 0 0
-1.162746 0.268003 1.643441 0 0 0 0
-1.157715 0.269001 1.649558 0 0 0 0
-1.154193 0.270368 1.657941 0 0 0 0
-1.149309 0.271436 1.664491 0 0 0 0
-1.142705 0.272112 1.668636 0 0 0 0
-1.137083 0.273035 1.674298 0 0 0 0
-1.132139 0.274138 1.681061 0 0 0 0
-1.126081 0.274988 1.686271 0 0 0 0
-1.118034 0.275362 1.688566 0 0 0 0
-1.110909 0.275972 1.692305 0 0 0 0
-1.102078 0.276165 1.693489 0 0 0 0
-1.090354 0.275630 1.690208 0 0 0 0
-1.082198 0.275995 1.692450 0 0 0 0
-1.078995 0.277642 1.702545 0 0 0 0
-1.076331 0.279458 1.713683 0 0 0 0
-1.073270 0.281203 1.724385 0 0 0 0
-1.071660 0.283364 1.737638 0 0 0 0
-1.068885 0.285255 1.749229 0 0 0 0
-1.064570 0.286766 1.758494 0 0 0 0
-1.060814 0.288457 1.768867 0 0 0 0
-1.058567 0.290595 1.781977 0 0 0 0
-1.055257 0.292480 1.793533 0 0 0 0
-1.050727 0.294060 1.803222 0 0 0 0
-1.047194 0.295952 1.814828 0 0 0 0
-1.045542 0.298420 1.829958 0 0 0 0
-1.043098 0.300708 1.843991 0 0 0 0
-1.037864 0.302230 1.853325 0 0 0 0
-1.031814 0.303544 1.861380 0 0 0 0
-1.024204 0.304420 1.866756 0 0 0 0
-1.013788 0.304473 1.867078 0 0 0 0
-1.000828 0.303754 1.862672 0 0 0 0
-0.985920 0.302423 1.854507 0 0 0 0
-0.977373 0.303035 1.858260 0 0 0 0
-0.975341 0.305703 1.874619 0 0 0 0
-0.977273 0.309685 1.899039 0 0 0 0
-0.979278 0.313780 1.924148 0 0 0 0
-0.975407 0.316062 1.938146 0 0 0 0
-1.035031 0.339206 2.080070 0 128 0 0
-1.031359 0.341901 2.096594 0 128 0 0
-1.027627 0.344639 2.113382 0 128 0 0
-1.023836 0.347421 2.130441 0 128 0 0
-1.019982 0.350248 2.147778 0 128 0 0
-1.016066 0.353121 2.165399 0 128 0 0
-1.012084 0.356042 2.183311 0 128 0 0
-1.008036 0.359012 2.201523 0 128 0 0
-1.003920 0.362032 2.220041 0 128 0 0
-0.701612 0.256229 1.571236 128 128 128 0
-0.692493 0.256153 1.570773 128 128 128 0
-0.683380 0.256078 1.570310 128 128 128 0
-0.674273 0.256002 1.569847 128 128 128 0
-0.942078 0.362468 2.222712 0 0 0 0
-0.934393 0.364389 2.234491 0 0 0 0
-0.918334 0.363052 2.226293 0 0 0 0
-0.906548 0.363390 2.228366 0 0 0 0
-0.899033 0.365474 2.241148 0 0 0 0
-0.889201 0.366663 2.248437 0 0 0 0
-0.873059 0.365247 2.239753 0 0 0 0
-0.845908 0.359114 2.202149 0 0 0 0
-0.822588 0.354449 2.173542 0 0 0 0
-0.795709 0.348086 2.134518 0 0 0 0
-0.767909 0.341116 2.091777 0 0 0 0
-0.735404 0.331804 2.034677 0 0 0 0
-0.715363 0.327909 2.010793 0 0 0 0
-0.699705 0.325929 1.998651 0 0 0 0
-0.680858 0.322374 1.976852 0 0 0 0
-0.656226 0.315916 1.937246 0 0 0 0
-0.638459 0.312598 1.916900 0 0 0 0
-0.608129 0.302907 1.857477 0 0 0 0
-0.582135 0.295073 1.809434 0 0 0 0
-0.566691 0.292401 1.793051 0 0 0 0
-0.555564 0.291899 1.789973 0 0 0 0
-0.545974 0.292202 1.791830 0 0 0 0
-0.537894 0.293339 1.798804 0 0 0 0
-0.530843 0.295092 1.809556 0 0 0 0
-0.521984 0.295890 1.814448 0 0 0 0
-0.509548 0.294651 1.806850 0 0 0 0
-0.497029 0.293313 1.798644 0 0 0 0
-0.488287 0.294194 1.804047 0 0 0 0
-0.482238 0.296770 1.819843 0 0 0 0
-0.478498 0.300911 1.845235 0 0 0 0
-0.490792 0.315545 1.934977 0 0 0 0
-0.441497 0.290346 1.780451 128 128 0 0
-0.431311 0.290289 1.780102 128 128 0 0
-0.421129 0.290232 1.779753 128 128 0 0
-0.410952 0.290176 1.779404 128 128 0 0
-0.400778 0.290119 1.779056 128 128 0 0
-0.390608 0.290062 1.778707 128 128 0 0
-0.380443 0.290005 1.778358 128 128 0 0
-0.370281 0.289948 1.778010 128 128 0 0
-0.360123 0.289891 1.777662 128 128 0 0
-0.349969 0.289835 1.777314 128 128 0 0
-0.339820 0.289778 1.776966 128 128 0 0
-0.329674 0.289721 1.776618 128 128 0 0
-0.319532 0.289665 1.776271 128 128 0 0
-0.309394 0.289608 1.775923 128 128 0 0
-0.299260 0.289551 1.775576 128 128 0 0
-0.289130 0.289495 1.775228 128 128 0 0
-0.279004 0.289438 1.774881 128 128 0 0
-0.268882 0.289381 1.774534 128 128 0 0
-0.258764 0.289325 1.774187 128 128 0 0
-0.248650 0.289268 1.773841 128 128 0 0
-0.238540 0.289212 1.773494 128 128 0 0
-0.228434 0.289155 1.773148 128 128 0 0
-0.218331 0.289099 1.772801 128 128 0 0
-0.208233 0.289042 1.772455 128 128 0 0
-0.198139 0.288986 1.772109 128 128 0 0
-0.188048 0.288929 1.771763 128 128 0 0
-0.177962 0.288873 1.771417 128 128 0 0
-0.167879 0.288817 1.771072 128 128 0 0
-0.157801 0.288760 1.770727 128 128 0 0
-0.147726 0.288704 1.770381 128 128 0 0
-0.137655 0.288648 1.770036 128 128 0 0
-0.127588 0.288592 1.769691 128 128 0 0
-0.117525 0.288535 1.769346 128 128 0 0
-0.107466 0.288479 1.769001 128 128 0 0
-0.097411 0.288423 1.768656 128 128 0 0
-0.087360 0.288367 1.768312 128 128 0 0
-0.077313 0.288310 1.767967 128 128 0 0
-0.067270 0.288254 1.767623 128 128 0 0
-0.057230 0.288198 1.767279 128 128 0 0
-0.047195 0.288142 1.766935 128 128 0 0
-0.037163 0.288086 1.766591 128 128 0 0
-0.027135 0.288030 1.766247 128 128 0 0
-0.017112 0.287974 1.765904 128 128 0 0
-0.007092 0.287918 1.765560 128 128 0 0
0.002924 0.287862 1.765217 128 128 0 0
0.012936 0.287806 1.764874 128 128 0 0
0.022945 0.287750 1.764531 128 128 0 0
0.032949 0.287694 1.764188 128 128 0 0
0.042949 0.287638 1.763845 128 128 0 0
0.052946 0.287582 1.763502 128 128 0 0
0.086547 0.395377 2.424515 192 0 0 0
0.100564 0.396410 2.430850 192 0 0 0
0.114654 0.397448 2.437217 192 0 0 0
0.128819 0.398492 2.443618 192 0 0 0
0.143058 0.399541 2.450053 192 0 0 0
0.157372 0.400596 2.456522 192 0 0 0
0.171762 0.401657 2.463024 192 0 0 0
0.186229 0.402723 2.469562 192 0 0 0
0.200772 0.403794 2.476134 192 0 0 0
0.215393 0.404872 2.482741 192 0 0 0
0.230093 0.405955 2.489384 192 0 0 0
0.244871 0.407044 2.496062 192 0 0 0
0.259729 0.408139 2.502776 192 0 0 0
0.274666 0.409240 2.509527 192 0 0 0
0.289685 0.410347 2.516314 192 0 0 0
0.304785 0.411459 2.523137 192 0 0 0
0.319967 0.412578 2.529998 192 0 0 0
0.335232 0.413703 2.536896 192 0 0 0
0.350581 0.414834 2.543833 192 0 0 0
0.366013 0.415972 2.550806 192 0 0 0
0.381531 0.417115 2.557819 192 0 0 0
0.397134 0.418265 2.564870 192 0 0 0
0.412823 0.419421 2.571960 192 0 0 0
0.428600 0.420584 2.579089 192 0 0 0
0.444464 0.421753 2.586258 192 0 0 0
0.460416 0.422928 2.593467 192 0 0 0
0.476458 0.424111 2.600716 192 0 0 0
0.492589 0.425299 2.608006 192 0 0 0
0.508811 0.426495 2.615336 192 0 0 0
0.525125 0.427697 2.622709 192 0 0 0
0.541531 0.428906 2.630122 192 0 0 0
0.558030 0.430122 2.637578 192 0 0 0
0.574623 0.431345 2.645077 192 0 0 0
0.591310 0.432574 2.652618 192 0 0 0
0.608093 0.433811 2.660202 192 0 0 0
0.624972 0.435055 2.667829 192 0 0 0
0.641948 0.436306 2.675501 192 0 0 0
0.659022 0.437564 2.683216 192 0 0 0
0.676194 0.438830 2.690977 192 0 0 0
0.693467 0.440103 2.698782 192 0 0 0
0.710840 0.441383 2.706633 192 0 0 0
0.728314 0.442671 2.714530 192 0 0 0
0.745890 0.443966 2.722472 192 0 0 0
0.763570 0.445269 2.730462 192 0 0 0
0.424631 0.242696 1.488252 64 0 128 0
0.427022 0.239304 1.467453 64 0 128 0
0.429347 0.236006 1.447228 64 0 128 0
0.549915 0.296608 1.818852 0 128 128 0
0.551128 0.291788 1.789289 0 128 128 0
0.552303 0.287121 1.760673 0 128 128 0
0.553440 0.282601 1.732957 0 128 128 0
0.554543 0.278222 1.706100 0 128 128 0
0.555611 0.273976 1.680063 0 128 128 0
0.556648 0.269857 1.654809 0 128 128 0
0.557653 0.265861 1.630303 0 128 128 0
0.558630 0.261981 1.606512 0 128 128 0
0.559578 0.258213 1.583405 0 128 128 0
0.560500 0.254552 1.560954 0 128 128 0
0.561395 0.250993 1.539130 0 128 128 0
0.562266 0.247532 1.517909 0 128 128 0
0.563113 0.244166 1.497264 0 128 128 0
0.563938 0.240889 1.477173 0 128 128 0
0.564741 0.237700 1.457615 0 128 128 0
0.565522 0.234594 1.438568 0 128 128 0
0.566284 0.231568 1.420012 0 128 128 0
0.567026 0.228619 1.401928 0 128 128 0
0.567750 0.225744 1.384300 0 128 128 0
0.568455 0.222941 1.367109 0 128 128 0
0.527468 0.204082 1.251462 0 0 0 0
0.531367 0.202860 1.243968 0 0 0 0
0.538610 0.202929 1.244396 0 0 0 0
0.546871 0.203376 1.247136 0 0 0 0
0.554800 0.203690 1.249059 0 0 0 0
0.560469 0.203176 1.245908 0 0 0 0
0.565247 0.202356 1.240880 0 0 0 0
0.570549 0.201741 1.237110 0 0 0 0
0.576521 0.201376 1.234869 0 0 0 0
0.583032 0.201205 1.233822 0 0 0 0
0.589976 0.201186 1.233706 0 0 0 0
0.596213 0.200929 1.232131 0 0 0 0
0.601751 0.200445 1.229164 0 0 0 0
0.607736 0.200120 1.227169 0 0 0 0
0.614115 0.199930 1.226005 0 0 0 0
0.618122 0.198981 1.220184 0 0 0 0
0.618243 0.196816 1.206906 0 0 0 0
0.615082 0.193665 1.187584 0 0 0 0
0.611678 0.190506 1.168214 0 0 0 0
0.610766 0.188183 1.153970 0 0 0 0
0.609070 0.185670 1.138560 0 0 0 0
0.607015 0.183102 1.122810 0 0 0 0
0.605406 0.180720 1.108205 0 0 0 0
0.602974 0.178144 1.092408 0 0 0 0
0.602917 0.176315 1.081193 0 0 0 0
0.605941 0.175415 1.075672 0 0 0 0
0.495591 0.142039 0.871006 64 0 128 0
0.496415 0.140870 0.863840 64 0 128 0
0.497226 0.139721 0.856792 64 0 128 0
0.498023 0.138590 0.849857 64 0 128 0
0.498807 0.137477 0.843035 64 0 128 0
0.499579 0.136383 0.836320 64 0 128 0
0.584765 0.158136 0.969715 0 128 128 0
0.585112 0.156755 0.961248 0 128 128 0
0.585453 0.155398 0.952927 0 128 128 0
0.585789 0.154065 0.944749 0 128 128 0
0.586119 0.152754 0.936711 0 128 128 0
-1.391799 0.284432 1.695304 0 0 0 0
-1.176351 0.242075 1.442845 0 128 0 0
-1.174587 0.243406 1.450776 0 128 0 0
-1.172803 0.244751 1.458795 0 128 0 0
-1.170999 0.246111 1.466903 0 128 0 0
-1.169175 0.247487 1.475101 0 128 0 0
-1.167330 0.248878 1.483392 0 128 0 0
-1.165465 0.250285 1.491776 0 128 0 0
-1.163578 0.251707 1.500256 0 128 0 0
-1.161670 0.253146 1.508832 0 128 0 0
-1.159740 0.254602 1.517507 0 128 0 0
-1.157787 0.256074 1.526283 0 128 0 0
-1.155812 0.257564 1.535161 0 128 0 0
-1.153814 0.259070 1.544142 0 128 0 0
-1.151792 0.260595 1.553229 0 128 0 0
-1.149746 0.262138 1.562424 0 128 0 0
-1.147676 0.263699 1.571728 0 128 0 0
-1.187055 0.274882 1.638387 0 0 0 0
-1.182382 0.275961 1.644816 0 0 0 0
-1.172061 0.275728 1.643429 0 0 0 0
-1.162275 0.275619 1.642776 0 0 0 0
-1.155007 0.276109 1.645700 0 0 0 0
-1.149235 0.276968 1.650820 0 0 0 0
-1.144100 0.277996 1.656946 0 0 0 0
-1.138825 0.279007 1.662971 0 0 0 0
-1.134493 0.280268 1.670484 0 0 0 0
-1.128891 0.281233 1.676238 0 0 0 0
-1.123374 0.282236 1.682217 0 0 0 0
-1.116630 0.282945 1.686445 0 0 0 0
-1.108641 0.283349 1.688851 0 0 0 0
-1.098698 0.283256 1.688294 0 0 0 0
-1.089184 0.283273 1.688395 0 0 0 0
-1.083735 0.284356 1.694853 0 0 0 0
-1.081584 0.286332 1.706631 0 0 0 0
-1.079799 0.288442 1.719204 0 0 0 0
-1.076083 0.290069 1.728904 0 0 0 0
-1.071879 0.291594 1.737992 0 0 0 0
-1.068256 0.293306 1.748200 0 0 0 0
-1.064857 0.295113 1.758967 0 0 0 0
-1.060335 0.296640 1.768068 0 0 0 0
-1.057600 0.298700 1.780349 0 0 0 0
-1.055971 0.301116 1.794747 0 0 0 0
-1.051775 0.302840 1.805020 0 0 0 0
-1.047936 0.304701 1.816115 0 0 0 0
-1.045090 0.306891 1.829167 0 0 0 0
-1.042328 0.309150 1.842630 0 0 0 0
-1.037484 0.310830 1.852646 0 0 0 0
-1.031283 0.312135 1.860422 0 0 0 0
-1.023261 0.312909 1.865037 0 0 0 0
-1.011638 0.312587 1.863119 0 0 0 0
-0.997176 0.311372 1.855875 0 0 0 0
-0.983436 0.310359 1.849836 0 0 0 0
-0.977754 0.311894 1.858985 0 0 0 0
-0.978115 0.315411 1.879950 0 0 0 0
-0.978294 0.318947 1.901023 0 0 0 0
-0.976422 0.321885 1.918537 0 0 0 0
-1.038334 0.346153 2.063184 0 128 0 0
-1.034717 0.348880 2.079438 0 128 0 0
-1.031043 0.351651 2.095952 0 128 0 0
-1.027311 0.354466 2.112730 0 128 0 0
-1.023517 0.357326 2.129778 0 128 0 0
-1.019663 0.360233 2.147105 0 128 0 0
-1.015745 0.363188 2.164714 0 128 0 0
-1.011762 0.366191 2.182616 0 128 0 0
-1.007712 0.369245 2.200816 0 128 0 0
-1.003595 0.372349 2.219321 0 128 0 0
-0.695518 0.261327 1.557591 128 128 128 0
-0.686481 0.261250 1.557136 128 128 128 0
-0.677449 0.261174 1.556681 128 128 128 0
-0.668422 0.261098 1.556226 128 128 128 0
-0.934824 0.370047 2.205599 0 0 0 0
-0.927737 0.372224 2.218573 0 0 0 0
-0.915309 0.372289 2.218959 0 0 0 0
-0.895913 0.369481 2.202225 0 0 0 0
-0.881169 0.368540 2.196616 0 0 0 0
-0.867510 0.368032 2.193591 0 0 0 0
-0.856774 0.368768 2.197973 0 0 0 0
-0.839147 0.366515 2.184547 0 0 0 0
-0.822280 0.364532 2.172729 0 0 0 0
-0.801103 0.360549 2.148987 0 0 0 0
-0.767781 0.350892 2.091429 0 0 0 0
-0.727660 0.337776 2.013253 0 0 0 0
-0.699479 0.329872 1.966143 0 0 0 0
-0.672309 0.322197 1.920397 0 0 0 0
-0.647950 0.315638 1.881304 0 0 0 0
-0.641684 0.317821 1.894314 0 0 0 0
-0.620561 0.312595 1.863163 0 0 0 0
-0.588217 0.301436 1.796657 0 0 0 0
-0.572408 0.298508 1.779202 0 0 0 0
-0.559195 0.296852 1.769333 0 0 0 0
-0.548874 0.296699 1.768421 0 0 0 0
-0.538448 0.296482 1.767129 0 0 0 0
-0.529936 0.297332 1.772192 0 0 0 0
-0.523505 0.299404 1.784543 0 0 0 0
-0.514848 0.300259 1.789642 0 0 0 0
-0.502979 0.299238 1.783556 0 0 0 0
-0.491280 0.298279 1.777837 0 0 0 0
-0.483280 0.299572 1.785545 0 0 0 0
-0.478351 0.302865 1.805174 0 0 0 0
-0.475704 0.307779 1.834461 0 0 0 0
-0.484818 0.320692 1.911424 0 0 0 0
-0.438289 0.296547 1.767515 128 128 0 0
-0.428178 0.296489 1.767171 128 128 0 0
-0.418071 0.296432 1.766827 128 128 0 0
-0.407968 0.296374 1.766484 128 128 0 0
-0.397868 0.296316 1.766140 128 128 0 0
-0.387773 0.296259 1.765796 128 128 0 0
-0.377682 0.296201 1.765453 128 128 0 0
-0.367594 0.296144 1.765110 128 128 0 0
-0.357511 0.296086 1.764766 128 128 0 0
-0.347431 0.296028 1.764423 128 128 0 0
-0.337355 0.295971 1.764080 128 128 0 0
-0.327284 0.295913 1.763738 128 128 0 0
-0.317216 0.295856 1.763395 128 128 0 0
-0.307152 0.295798 1.763052 128 128 0 0
-0.297092 0.295741 1.762710 128 128 0 0
-0.287036 0.295684 1.762368 128 128 0 0
-0.276983 0.295626 1.762026 128 128 0 0
-0.266935 0.295569 1.761684 128 128 0 0
-0.256891 0.295511 1.761342 128 128 0 0
-0.246850 0.295454 1.761000 128 128 0 0
-0.236814 0.295397 1.760659 128 128 0 0
-0.226781 0.295339 1.760317 128 128 0 0
-0.216752 0.295282 1.759976 128 128 0 0
-0.206727 0.295225 1.759635 128 128 0 0
-0.196706 0.295168 1.759294 128 128 0 0
-0.186689 0.295111 1.758953 128 128 0 0
-0.176675 0.295053 1.758612 128 128 0 0
-0.166666 0.294996 1.758272 128 128 0 0
-0.156660 0.294939 1.757931 128 128 0 0
-0.146659 0.294882 1.757591 128 128 0 0
-0.136661 0.294825 1.757250 128 128 0 0
-0.126667 0.294768 1.756910 128 128 0 0
-0.116677 0.294711 1.756570 128 128 0 0
-0.106691 0.294654 1.756230 128 128 0 0
-0.096708 0.294597 1.755891 128 128 0 0
-0.086730 0.294540 1.755551 128 128 0 0
-0.076755 0.294483 1.755212 128 128 0 0
-0.066784 0.294426 1.754872 128 128 0 0
-0.056817 0.294369 1.754533 128 128 0 0
-0.046854 0.294312 1.754194 128 128 0 0
-0.036895 0.294255 1.753855 128 128 0 0
-0.026940 0.294198 1.753516 128 128 0 0
-0.016988 0.294142 1.753178 128 128 0 0
-0.007041 0.294085 1.752839 128 128 0 0
0.002903 0.294028 1.752501 128 128 0 0
0.012843 0.293971 1.752162 128 128 0 0
0.022779 0.293915 1.751824 128 128 0 0
0.032712 0.293858 1.751486 128 128 0 0
0.042640 0.293801 1.751148 128 128 0 0
0.052565 0.293744 1.750811 128 128 0 0
0.086546 0.406773 2.424498 192 0 0 0
0.100563 0.407836 2.430832 192 0 0 0
0.114653 0.408904 2.437199 192 0 0 0
0.128818 0.409978 2.443600 192 0 0 0
0.143057 0.411058 2.450035 192 0 0 0
0.157371 0.412143 2.456503 192 0 0 0
0.171761 0.413234 2.463006 192 0 0 0
0.186227 0.414331 2.469543 192 0 0 0
0.200771 0.415433 2.476115 192 0 0 0
0.215392 0.416542 2.482723 192 0 0 0
0.230091 0.417656 2.489365 192 0 0 0
0.244869 0.418777 2.496043 192 0 0 0
0.259727 0.419903 2.502757 192 0 0 0
0.274664 0.421036 2.509507 192 0 0 0
0.289683 0.422174 2.516294 192 0 0 0
0.304783 0.423319 2.523118 192 0 0 0
0.319965 0.424470 2.529979 192 0 0 0
0.335230 0.425628 2.536877 192 0 0 0
0.350578 0.426791 2.543813 192 0 0 0
0.366011 0.427961 2.550786 192 0 0 0
0.381528 0.429138 2.557799 192 0 0 0
0.397131 0.430321 2.564850 192 0 0 0
0.412820 0.431510 2.571939 192 0 0 0
0.428596 0.432707 2.579069 192 0 0 0
0.444460 0.433909 2.586237 192 0 0 0
0.460412 0.435119 2.593446 192 0 0 0
0.476454 0.436335 2.600695 192 0 0 0
0.492585 0.437558 2.607985 192 0 0 0
0.508807 0.438788 2.615316 192 0 0 0
0.525121 0.440025 2.622688 192 0 0 0
0.541527 0.441269 2.630101 192 0 0 0
0.558025 0.442519 2.637557 192 0 0 0
0.574618 0.443778 2.645055 192 0 0 0
0.591305 0.445043 2.652596 192 0 0 0
0.608088 0.446315 2.660180 192 0 0 0
0.624967 0.447595 2.667808 192 0 0 0
0.641943 0.448882 2.675479 192 0 0 0
0.659016 0.450176 2.683195 192 0 0 0
0.676189 0.451478 2.690955 192 0 0 0
0.693461 0.452788 2.698760 192 0 0 0
0.710834 0.454105 2.706611 192 0 0 0
0.728308 0.455430 2.714507 192 0 0 0
0.745884 0.456762 2.722450 192 0 0 0
0.763564 0.458103 2.730439 192 0 0 0
0.424178 0.249427 1.486664 64 0 128 0
0.426573 0.245945 1.465909 64 0 128 0
0.428902 0.242559 1.445726 64 0 128 0
0.431167 0.239264 1.426092 64 0 128 0
0.551210 0.300245 1.789556 0 128 128 0
0.552384 0.295442 1.760931 0 128 128 0
0.553520 0.290791 1.733207 0 128 128 0
0.554621 0.286284 1.706342 0 128 128 0
0.555689 0.281914 1.680298 0 128 128 0
0.556724 0.277676 1.655037 0 128 128 0
0.557729 0.273563 1.630524 0 128 128 0
0.558704 0.269571 1.606726 0 128 128 0
0.559652 0.265693 1.583614 0 128 128 0
0.560572 0.261925 1.561156 0 128 128 0
0.561467 0.258263 1.539327 0 128 128 0
0.562337 0.254701 1.518100 0 128 128 0
0.563184 0.251237 1.497450 0 128 128 0
0.564007 0.247865 1.477355 0 128 128 0
0.564809 0.244583 1.457791 0 128 128 0
0.565590 0.241386 1.438740 0 128 128 0
0.566351 0.238272 1.420179 0 128 128 0
0.567092 0.235238 1.402092 0 128 128 0
0.567815 0.232279 1.384459 0 128 128 0
0.568520 0.229395 1.367265 0 128 128 0
0.525542 0.209199 1.246893 0 0 0 0
0.527720 0.207276 1.235432 0 0 0 0
0.533797 0.206915 1.233277 0 0 0 0
0.541826 0.207310 1.235632 0 0 0 0
0.549804 0.207675 1.237810 0 0 0 0
0.556127 0.207414 1.236255 0 0 0 0
0.561404 0.206775 1.232444 0 0 0 0
0.566620 0.206129 1.228592 0 0 0 0
0.572624 0.205781 1.226522 0 0 0 0
0.579684 0.205817 1.226737 0 0 0 0
0.586779 0.205865 1.227020 0 0 0 0
0.592673 0.205495 1.224814 0 0 0 0
0.598305 0.205044 1.222125 0 0 0 0
0.604836 0.204907 1.221313 0 0 0 0
0.612118 0.205026 1.222018 0 0 0 0
0.617199 0.204412 1.218362 0 0 0 0
0.618254 0.202494 1.206928 0 0 0 0
0.615054 0.199239 1.187528 0 0 0 0
0.611836 0.196049 1.168517 0 0 0 0
0.610683 0.193582 1.153811 0 0 0 0
0.609652 0.191206 1.139648 0 0 0 0
0.607450 0.188516 1.123615 0 0 0 0
0.606616 0.186302 1.110420 0 0 0 0
0.604613 0.183778 1.095378 0 0 0 0
0.603453 0.181560 1.082153 0 0 0 0
0.605545 0.180354 1.074968 0 0 0 0
0.495282 0.146043 0.870462 64 0 128 0
0.496108 0.144842 0.863305 64 0 128 0
0.496920 0.143661 0.856265 64 0 128 0
0.497719 0.142499 0.849339 64 0 128 0
0.498506 0.141356 0.842525 64 0 128 0
0.499279 0.140230 0.835818 64 0 128 0
0.500041 0.139123 0.829218 64 0 128 0
0.500791 0.138033 0.822721 64 0 128 0
0.501529 0.136960 0.816325 64 0 128 0
0.502255 0.135903 0.810028 64 0 128 0
0.502971 0.134863 0.803827 64 0 128 0
-1.393617 0.292785 1.697519 0 0 0 0
-1.176104 0.248807 1.442541 0 128 0 0
-1.174338 0.250174 1.450469 0 128 0 0
-1.172553 0.251556 1.458484 0 128 0 0
-1.170748 0.252954 1.466589 0 128 0 0
-1.168923 0.254368 1.474783 0 128 0 0
-1.167077 0.255797 1.483070 0 128 0 0
-1.165211 0.257243 1.491451 0 128 0 0
-1.163323 0.258704 1.499927 0 128 0 0
-1.161414 0.260183 1.508500 0 128 0 0
-1.159483 0.261679 1.517171 0 128 0 0
-1.157530 0.263192 1.525943 0 128 0 0
-1.155553 0.264722 1.534817 0 128 0 0
-1.153554 0.266271 1.543794 0 128 0 0
-1.151531 0.267837 1.552877 0 128 0 0
-1.149484 0.269422 1.562068 0 128 0 0
-1.147413 0.271026 1.571368 0 128 0 0
-1.183467 0.281731 1.633434 0 0 0 0
-1.178342 0.282725 1.639197 0 0 0 0
-1.168332 0.282554 1.638201 0 0 0 0
-1.159360 0.282632 1.638656 0 0 0 0
-1.152871 0.283322 1.642655 0 0 0 0
-1.147935 0.284408 1.648952 0 0 0 0
-1.142637 0.285421 1.654827 0 0 0 0
-1.138124 0.286649 1.661947 0 0 0 0
-1.132898 0.287717 1.668135 0 0 0 0
-1.125510 0.288248 1.671217 0 0 0 0
-1.119781 0.289218 1.676837 0 0 0 0
-1.114162 0.290232 1.682718 0 0 0 0
-1.106801 0.290806 1.686047 0 0 0 0
-1.096592 0.290635 1.685058 0 0 0 0
-1.088606 0.291056 1.687499 0 0 0 0
-1.086257 0.293005 1.698797 0 0 0 0
-1.085367 0.295386 1.712599 0 0 0 0
-1.083465 0.297532 1.725042 0 0 0 0
-1.078899 0.298978 1.733429 0 0 0 0
-1.072728 0.300003 1.739369 0 0 0 0
-1.068190 0.301507 1.748092 0 0 0 0
-1.065354 0.303525 1.759789 0 0 0 0
-1.060685 0.305053 1.768650 0 0 0 0
-1.057000 0.306897 1.779338 0 0 0 0
-1.055395 0.309385 1.793768 0 0 0 0
-1.052038 0.311404 1.805471 0 0 0 0
-1.048751 0.313483 1.817527 0 0 0 0
-1.045446 0.315598 1.829789 0 0 0 0
-1.042208 0.317776 1.842417 0 0 0 0
-1.037154 0.319439 1.852058 0 0 0 0
-1.029515 0.320332 1.857233 0 0 0 0
-1.019839 0.320602 1.858801 0 0 0 0
-1.007023 0.319881 1.854619 0 0 0 0
-0.992871 0.318716 1.847863 0 0 0 0
-0.982954 0.318899 1.848928 0 0 0 0
-0.978977 0.321035 1.861312 0 0 0 0
-0.977747 0.324128 1.879243 0 0 0 0
-0.974088 0.326475 1.892849 0 0 0 0
-0.972093 0.329438 1.910030 0 0 0 0
-1.038021 0.355747 2.062562 0 128 0 0
-1.034403 0.358549 2.078808 0 128 0 0
-1.030728 0.361395 2.095311 0 128 0 0
-1.026994 0.364287 2.112079 0 128 0 0
-1.023199 0.367226 2.129117 0 128 0 0
-1.019343 0.370212 2.146432 0 128 0 0
-1.015424 0.373248 2.164031 0 128 0 0
-1.011440 0.376333 2.181921 0 128 0 0
-1.007389 0.379470 2.200109 0 128 0 0
-1.003270 0.382660 2.218603 0 128 0 0
-0.999082 0.385904 2.237411 0 128 0 0
-0.680572 0.266260 1.543733 128 128 128 0
-0.671620 0.266183 1.543286 128 128 128 0
-0.931011 0.373861 2.167588 0 0 0 0
-0.926952 0.377214 2.187026 0 0 0 0
-0.919048 0.379071 2.197795 0 0 0 0
-0.907668 0.379527 2.200434 0 0 0 0
-0.885774 0.375537 2.177304 0 0 0 0
-0.868821 0.373559 2.165836 0 0 0 0
-0.862849 0.376313 2.181803 0 0 0 0
-0.855004 0.378319 2.193434 0 0 0 0
-0.838740 0.376604 2.183490 0 0 0 0
-0.822217 0.374719 2.172563 0 0 0 0
-0.796363 0.368460 2.136272 0 0 0 0
-0.751060 0.352869 2.045880 0 0 0 0
-0.711222 0.339398 1.967773 0 0 0 0
-0.677518 0.328469 1.904413 0 0 0 0
-0.647624 0.319065 1.849885 0 0 0 0
-0.642567 0.321788 1.865675 0 0 0 0
-0.626937 0.319219 1.850782 0 0 0 0
-0.600976 0.311212 1.804360 0 0 0 0
-0.578618 0.304827 1.767337 0 0 0 0
-0.566472 0.303690 1.760749 0 0 0 0
-0.555403 0.303101 1.757333 0 0 0 0
-0.545250 0.302999 1.756743 0 0 0 0
-0.535376 0.303052 1.757047 0 0 0 0
-0.527096 0.304026 1.762692 0 0 0 0
-0.520281 0.305898 1.773550 0 0 0 0
-0.510709 0.306192 1.775255 0 0 0 0
-0.496642 0.303749 1.761086 0 0 0 0
-0.483075 0.301517 1.748146 0 0 0 0
-0.473373 0.301655 1.748945 0 0 0 0
-0.469307 0.305466 1.771045 0 0 0 0
-0.468063 0.311321 1.804992 0 0 0 0
-0.473028 0.321662 1.864943 0 0 0 0
-0.435128 0.302659 1.754766 128 128 0 0
-0.425090 0.302600 1.754427 128 128 0 0
-0.415056 0.302542 1.754088 128 128 0 0
-0.405027 0.302483 1.753749 128 128 0 0
-0.395001 0.302425 1.753410 128 128 0 0
-0.384979 0.302366 1.753072 128 128 0 0
-0.374961 0.302308 1.752733 128 128 0 0
-0.364946 0.302250 1.752395 128 128 0 0
-0.452724 0.385448 2.234764 128 0 0 0
-0.440077 0.385475 2.234922 128 0 0 0
-0.334927 0.302075 1.751380 128 128 0 0
-0.324928 0.302016 1.751043 128 128 0 0
-0.314933 0.301958 1.750705 128 128 0 0
-0.304942 0.301900 1.750367 128 128 0 0
-0.294955 0.301842 1.750030 128 128 0 0
-0.284971 0.301783 1.749693 128 128 0 0
-0.274992 0.301725 1.749355 128 128 0 0
-0.265016 0.301667 1.749018 128 128 0 0
-0.255044 0.301609 1.748681 128 128 0 0
-0.245076 0.301551 1.748345 128 128 0 0
-0.235112 0.301493 1.748008 128 128 0 0
-0.225152 0.301435 1.747671 128 128 0 0
-0.215195 0.301377 1.747335 128 128 0 0
-0.205242 0.301319 1.746999 128 128 0 0
-0.195294 0.301261 1.746662 128 128 0 0
-0.185349 0.301203 1.746326 128 128 0 0
-0.175407 0.301145 1.745991 128 128 0 0
-0.165470 0.301087 1.745655 128 128 0 0
-0.155536 0.301029 1.745319 128 128 0 0
-0.145607 0.300971 1.744984 128 128 0 0
-0.135681 0.300913 1.744648 128 128 0 0
-0.125759 0.300856 1.744313 128 128 0 0
-0.115840 0.300798 1.743978 128 128 0 0
-0.105926 0.300740 1.743643 128 128 0 0
-0.096015 0.300682 1.743308 128 128 0 0
-0.086108 0.300625 1.742973 128 128 0 0
-0.076205 0.300567 1.742639 128 128 0 0
-0.066306 0.300509 1.742304 128 128 0 0
-0.056411 0.300451 1.741970 128 128 0 0
-0.046519 0.300394 1.741635 128 128 0 0
-0.036631 0.300336 1.741301 128 128 0 0
-0.026747 0.300279 1.740968 128 128 0 0
-0.016867 0.300221 1.740634 128 128 0 0
-0.006990 0.300163 1.740300 128 128 0 0
0.002882 0.300106 1.739966 128 128 0 0
0.012751 0.300048 1.739633 128 128 0 0
0.022616 0.299991 1.739300 128 128 0 0
0.032478 0.299933 1.738966 128 128 0 0
0.042335 0.299876 1.738633 128 128 0 0
0.052189 0.299819 1.738300 128 128 0 0
0.086545 0.418169 2.424480 192 0 0 0
0.100562 0.419262 2.430814 192 0 0 0
0.114652 0.420360 2.437181 192 0 0 0
0.128817 0.421464 2.443582 192 0 0 0
0.143056 0.422574 2.450016 192 0 0 0
0.157370 0.423690 2.456485 192 0 0 0
0.171760 0.424811 2.462988 192 0 0 0
0.186226 0.425939 2.469525 192 0 0 0
0.200769 0.427072 2.476097 192 0 0 0
0.215390 0.428212 2.482704 192 0 0 0
0.230089 0.429357 2.489346 192 0 0 0
0.244867 0.430509 2.496024 192 0 0 0
0.259725 0.431667 2.502738 192 0 0 0
0.274662 0.432832 2.509488 192 0 0 0
0.289681 0.434002 2.516275 192 0 0 0
0.304780 0.435179 2.523099 192 0 0 0
0.319962 0.436362 2.529959 192 0 0 0
0.335227 0.437552 2.536857 192 0 0 0
0.350575 0.438748 2.543793 192 0 0 0
0.366008 0.439951 2.550767 192 0 0 0
0.381525 0.441161 2.557779 192 0 0 0
0.397128 0.442377 2.564830 192 0 0 0
0.412817 0.443599 2.571919 192 0 0 0
0.428593 0.444829 2.579048 192 0 0 0
0.313905 0.315042 1.826562 128 0 128 0
0.323444 0.314241 1.821918 128 0 128 0
0.332934 0.313444 1.817298 128 0 128 0
0.342375 0.312651 1.812701 128 0 128 0
0.351770 0.311862 1.808128 128 0 128 0
0.361117 0.311077 1.803578 128 0 128 0
0.370417 0.310297 1.799050 128 0 128 0
0.379670 0.309520 1.794545 128 0 128 0
0.574613 0.456210 2.645034 192 0 0 0
0.591300 0.457511 2.652575 192 0 0 0
0.608083 0.458819 2.660159 192 0 0 0
0.624962 0.460134 2.667786 192 0 0 0
0.641937 0.461457 2.675457 192 0 0 0
0.659011 0.462788 2.683172 192 0 0 0
0.676183 0.464127 2.690933 192 0 0 0
0.693455 0.465473 2.698738 192 0 0 0
0.710828 0.466827 2.706589 192 0 0 0
0.728302 0.468189 2.714485 192 0 0 0
0.745878 0.469559 2.722427 192 0 0 0
0.421258 0.259818 1.506384 64 0 128 0
0.423726 0.256143 1.485079 64 0 128 0
0.426124 0.252571 1.464369 64 0 128 0
0.428457 0.249098 1.444228 64 0 128 0
0.430727 0.245718 1.424634 64 0 128 0
0.551292 0.308705 1.789822 0 128 128 0
0.552465 0.303766 1.761188 0 128 128 0
0.553600 0.298983 1.733456 0 128 128 0
0.554700 0.294348 1.706584 0 128 128 0
0.555766 0.289855 1.680532 0 128 128 0
0.556801 0.285497 1.655264 0 128 128 0
0.557805 0.281268 1.630745 0 128 128 0
0.558779 0.277162 1.606941 0 128 128 0
0.559725 0.273174 1.583822 0 128 128 0
0.560645 0.269300 1.561359 0 128 128 0
0.561539 0.265534 1.539524 0 128 128 0
0.562408 0.261872 1.518292 0 128 128 0
0.563254 0.258309 1.497637 0 128 128 0
0.564076 0.254842 1.477536 0 128 128 0
0.564877 0.251467 1.457968 0 128 128 0
0.565658 0.248181 1.438912 0 128 128 0
0.566418 0.244979 1.420347 0 128 128 0
0.567158 0.241858 1.402255 0 128 128 0
0.567880 0.238816 1.384619 0 128 128 0
0.568584 0.235850 1.367420 0 128 128 0
0.523183 0.214096 1.241295 0 0 0 0
0.526060 0.212414 1.231544 0 0 0 0
0.530909 0.211563 1.226606 0 0 0 0
0.537278 0.211331 1.225261 0 0 0 0
0.544589 0.211470 1.226069 0 0 0 0
0.552145 0.211700 1.227403 0 0 0 0
0.558738 0.211560 1.226591 0 0 0 0
0.563926 0.210898 1.222751 0 0 0 0
0.569287 0.210315 1.219375 0 0 0 0
0.576282 0.210343 1.219538 0 0 0 0
0.582878 0.210227 1.218863 0 0 0 0
0.588290 0.209691 1.215757 0 0 0 0
0.594603 0.209485 1.214563 0 0 0 0
0.602378 0.209793 1.216349 0 0 0 0
0.610940 0.210366 1.219666 0 0 0 0
0.616781 0.209998 1.217536 0 0 0 0
0.618040 0.208096 1.206510 0 0 0 0
0.615107 0.204840 1.187631 0 0 0 0
0.612778 0.201853 1.170314 0 0 0 0
0.611004 0.199112 1.154418 0 0 0 0
0.608160 0.196083 1.136859 0 0 0 0
0.605666 0.193230 1.120315 0 0 0 0
0.603585 0.190566 1.104872 0 0 0 0
0.603290 0.188515 1.092981 0 0 0 0
0.604655 0.187020 1.084310 0 0 0 0
0.606054 0.185564 1.075873 0 0 0 0
0.494973 0.150042 0.869918 64 0 128 0
0.495800 0.148809 0.862771 64 0 128 0
0.496615 0.147596 0.855739 64 0 128 0
0.497416 0.146403 0.848822 64 0 128 0
0.498204 0.145229 0.842016 64 0 128 0
0.498980 0.144074 0.835317 64 0 128 0
0.499744 0.142937 0.828725 64 0 128 0
0.500495 0.141818 0.822235 64 0 128 0
0.501235 0.140716 0.815847 64 0 128 0
0.501964 0.139631 0.809557 64 0 128 0
0.502681 0.138563 0.803363 64 0 128 0
-1.396068 0.301295 1.700504 0 0 0 0
-1.175856 0.255535 1.442238 0 128 0 0
-1.174089 0.256939 1.450162 0 128 0 0
-1.172303 0.258359 1.458174 0 128 0 0
-1.170497 0.259794 1.466275 0 128 0 0
-1.168671 0.261245 1.474466 0 128 0 0
-1.166825 0.262713 1.482750 0 128 0 0
-1.164958 0.264197 1.491127 0 128 0 0
-1.163069 0.265699 1.499599 0 128 0 0
-1.161158 0.267217 1.508168 0 128 0 0
-1.159226 0.268752 1.516835 0 128 0 0
-1.157272 0.270306 1.525603 0 128 0 0
-1.155294 0.271877 1.534473 0 128 0 0
-1.153294 0.273467 1.543446 0 128 0 0
-1.151270 0.275076 1.552525 0 128 0 0
-1.149222 0.276704 1.561712 0 128 0 0
-1.147150 0.278351 1.571008 0 128 0 0
-1.177522 0.287958 1.625228 0 0 0 0
-1.170408 0.288477 1.628159 0 0 0 0
-1.161878 0.288652 1.629151 0 0 0 0
-1.155761 0.289435 1.633569 0 0 0 0
-1.150833 0.290531 1.639752 0 0 0 0
-1.147190 0.291971 1.647882 0 0 0 0
-1.141264 0.292850 1.652839 0 0 0 0
-1.135448 0.293771 1.658040 0 0 0 0
-1.129468 0.294665 1.663085 0 0 0 0
-1.122554 0.295328 1.666828 0 0 0 0
-1.115554 0.295980 1.670507 0 0 0 0
-1.109378 0.296863 1.675493 0 0 0 0
-1.103717 0.297901 1.681349 0 0 0 0
-1.094751 0.298057 1.682230 0 0 0 0
-1.088917 0.299076 1.687980 0 0 0 0
-1.087580 0.301359 1.700865 0 0 0 0
-1.085346 0.303432 1.712567 0 0 0 0
-1.081948 0.305214 1.722626 0 0 0 0
-1.079374 0.307264 1.734193 0 0 0 0
-1.075251 0.308906 1.743460 0 0 0 0
-1.069180 0.310014 1.749712 0 0 0 0
-1.064579 0.311572 1.758509 0 0 0 0
-1.061045 0.313475 1.769251 0 0 0 0
-1.057443 0.315395 1.780084 0 0 0 0
-1.054703 0.317611 1.792592 0 0 0 0
-1.052208 0.319945 1.805763 0 0 0 0
-1.050195 0.322472 1.820029 0 0 0 0
-1.046504 0.324530 1.831641 0 0 0 0
-1.041582 0.326243 1.841310 0 0 0 0
-1.035378 0.327585 1.848886 0 0 0 0
-1.025250 0.327701 1.849539 0 0 0 0
-1.012177 0.326867 1.844836 0 0 0 0
-0.999040 0.325996 1.839917 0 0 0 0
-0.990249 0.326539 1.842983 0 0 0 0
-0.985167 0.328330 1.853092 0 0 0 0
-0.980763 0.330388 1.864706 0 0 0 0
-0.976586 0.332568 1.877011 0 0 0 0
-0.970936 0.334290 1.886726 0 0 0 0
-1.041272 0.362502 2.045958 0 128 0 0
-1.037709 0.365334 2.061942 0 128 0 0
-1.034089 0.368211 2.078177 0 128 0 0
-1.030413 0.371133 2.094670 0 128 0 0
-1.026677 0.374102 2.111428 0 128 0 0
-1.022881 0.377119 2.128455 0 128 0 0
-1.019024 0.380185 2.145759 0 128 0 0
-1.015103 0.383301 2.163347 0 128 0 0
-1.011118 0.386469 2.181226 0 128 0 0
-1.007065 0.389690 2.199403 0 128 0 0
-1.002945 0.392964 2.217885 0 128 0 0
-0.998755 0.396294 2.236680 0 128 0 0
-0.674764 0.271184 1.530559 128 128 128 0
-0.665890 0.271106 1.530119 128 128 128 0
-0.934101 0.385327 2.174783 0 0 0 0
-0.925541 0.386907 2.183697 0 0 0 0
-0.910515 0.385789 2.177390 0 0 0 0
-0.898744 0.386039 2.178801 0 0 0 0
-0.875876 0.381463 2.152973 0 0 0 0
-0.861898 0.380684 2.148576 0 0 0 0
-0.860940 0.385716 2.176976 0 0 0 0
-0.854298 0.388311 2.191622 0 0 0 0
-0.840542 0.387701 2.188180 0 0 0 0
-0.813599 0.380899 2.149791 0 0 0 0
-0.763590 0.362927 2.048357 0 0 0 0
-0.719163 0.347094 1.958993 0 0 0 0
-0.677835 0.332283 1.875400 0 0 0 0
-0.646216 0.321834 1.816428 0 0 0 0
-0.637380 0.322578 1.820624 0 0 0 0
-0.623183 0.320588 1.809395 0 0 0 0
-0.605495 0.316705 1.787482 0 0 0 0
-0.583989 0.310660 1.753360 0 0 0 0
-0.574042 0.310660 1.753359 0 0 0 0
-0.564140 0.310685 1.753501 0 0 0 0
-0.554631 0.310931 1.754890 0 0 0 0
-0.545557 0.311435 1.757734 0 0 0 0
-0.536689 0.312077 1.761356 0 0 0 0
-0.529231 0.313578 1.769832 0 0 0 0
-0.519969 0.314049 1.772487 0 0 0 0
-0.506032 0.311659 1.758999 0 0 0 0
-0.489134 0.307312 1.734465 0 0 0 0
-0.474977 0.304544 1.718843 0 0 0 0
-0.465491 0.304718 1.719824 0 0 0 0
-0.458892 0.306829 1.731741 0 0 0 0
-0.458043 0.312962 1.766352 0 0 0 0
-0.384568 0.268637 1.516183 128 128 128 0
-0.432011 0.308682 1.742199 128 128 0 0
-0.422046 0.308623 1.741865 128 128 0 0
-0.412085 0.308564 1.741531 128 128 0 0
-0.402128 0.308505 1.741197 128 128 0 0
-0.392174 0.308446 1.740863 128 128 0 0
-0.382224 0.308386 1.740529 128 128 0 0
-0.372278 0.308327 1.740196 128 128 0 0
-0.362336 0.308268 1.739862 128 128 0 0
-0.452873 0.396085 2.235500 128 0 0 0
-0.440222 0.396113 2.235658 128 0 0 0
-0.332533 0.308091 1.738862 128 128 0 0
-0.322606 0.308032 1.738529 128 128 0 0
-0.312683 0.307973 1.738196 128 128 0 0
-0.302764 0.307914 1.737863 128 128 0 0
-0.292848 0.307855 1.737531 128 128 0 0
-0.282936 0.307796 1.737198 128 128 0 0
-0.273028 0.307737 1.736866 128 128 0 0
-0.263124 0.307679 1.736534 128 128 0 0
-0.253224 0.307620 1.736201 128 128 0 0
-0.243327 0.307561 1.735869 128 128 0 0
-0.233435 0.307502 1.735537 128 128 0 0
-0.223546 0.307443 1.735206 128 128 0 0
-0.213660 0.307385 1.734874 128 128 0 0
-0.203779 0.307326 1.734542 128 128 0 0
-0.193901 0.307267 1.734211 128 128 0 0
-0.184028 0.307208 1.733880 128 128 0 0
-0.174157 0.307150 1.733549 128 128 0 0
-0.164291 0.307091 1.733218 128 128 0 0
-0.154429 0.307032 1.732887 128 128 0 0
-0.144570 0.306974 1.732556 128 128 0 0
-0.134715 0.306915 1.732226 128 128 0 0
-0.124863 0.306857 1.731895 128 128 0 0
-0.115016 0.306798 1.731565 128 128 0 0
-0.105172 0.306740 1.731234 128 128 0 0
-0.095332 0.306681 1.730904 128 128 0 0
-0.085496 0.306623 1.730574 128 128 0 0
-0.075663 0.306564 1.730244 128 128 0 0
-0.065835 0.306506 1.729915 128 128 0 0
-0.056010 0.306447 1.729585 128 128 0 0
-0.046188 0.306389 1.729255 128 128 0 0
-0.036371 0.306331 1.728926 128 128 0 0
-0.026557 0.306272 1.728597 128 128 0 0
-0.016747 0.306214 1.728268 128 128 0 0
-0.006941 0.306156 1.727939 128 128 0 0
0.002862 0.306097 1.727610 128 128 0 0
0.012661 0.306039 1.727281 128 128 0 0
0.022456 0.305981 1.726953 128 128 0 0
0.032247 0.305923 1.726624 128 128 0 0
0.042035 0.305865 1.726296 128 128 0 0
0.051819 0.305806 1.725968 128 128 0 0
0.086545 0.429565 2.424462 192 0 0 0
0.100561 0.430688 2.430796 192 0 0 0
0.114652 0.431816 2.437163 192 0 0 0
0.128816 0.432950 2.443564 192 0 0 0
0.143055 0.434090 2.449998 192 0 0 0
0.157369 0.435236 2.456466 192 0 0 0
0.171758 0.436388 2.462969 192 0 0 0
0.186224 0.437546 2.469506 192 0 0 0
0.200768 0.438711 2.476078 192 0 0 0
0.215388 0.439881 2.482685 192 0 0 0
0.230087 0.441058 2.489327 192 0 0 0
0.244865 0.442242 2.496005 192 0 0 0
0.259723 0.443431 2.502719 192 0 0 0
0.274660 0.444627 2.509469 192 0 0 0
0.289678 0.445830 2.516256 192 0 0 0
0.304778 0.447038 2.523079 192 0 0 0
0.319960 0.448254 2.529940 192 0 0 0
0.335225 0.449476 2.536838 192 0 0 0
0.350573 0.450705 2.543773 192 0 0 0
0.264023 0.326014 1.840020 128 0 128 0
0.273759 0.325179 1.835308 128 0 128 0
0.283446 0.324349 1.830620 128 0 128 0
0.293083 0.323522 1.825955 128 0 128 0
0.302671 0.322700 1.821315 128 0 128 0
0.312210 0.321882 1.816698 128 0 128 0
0.321701 0.321068 1.812104 128 0 128 0
0.331145 0.320258 1.807534 128 0 128 0
0.340540 0.319453 1.802986 128 0 128 0
0.349889 0.318651 1.798462 128 0 128 0
0.359191 0.317853 1.793960 128 0 128 0
0.368446 0.317060 1.789480 128 0 128 0
0.377656 0.316270 1.785023 128 0 128 0
0.386819 0.315484 1.780588 128 0 128 0
0.395937 0.314702 1.776175 128 0 128 0
0.405010 0.313924 1.771783 128 0 128 0
0.414038 0.313150 1.767414 128 0 128 0
0.423022 0.312380 1.763066 128 0 128 0
0.659006 0.475400 2.683151 192 0 0 0
0.676178 0.476775 2.690911 192 0 0 0
0.693450 0.478158 2.698716 192 0 0 0
0.710822 0.479549 2.706566 192 0 0 0
0.728296 0.480948 2.714462 192 0 0 0
0.476010 0.307836 1.737420 128 0 128 0
0.420803 0.266612 1.504757 64 0 128 0
0.423275 0.262846 1.483498 64 0 128 0
0.425677 0.259184 1.462831 64 0 128 0
0.428013 0.255623 1.442732 64 0 128 0
0.430287 0.252158 1.423179 64 0 128 0
0.432499 0.248786 1.404148 64 0 128 0
0.552545 0.312093 1.761446 0 128 128 0
0.553680 0.307178 1.733706 0 128 128 0
0.554779 0.302415 1.706826 0 128 128 0
0.555844 0.297798 1.680767 0 128 128 0
0.556877 0.293320 1.655492 0 128 128 0
0.557880 0.288974 1.630966 0 128 128 0
0.558854 0.284755 1.607156 0 128 128 0
0.559799 0.280658 1.584031 0 128 128 0
0.560718 0.276677 1.561562 0 128 128 0
0.561611 0.272807 1.539721 0 128 128 0
0.562479 0.269044 1.518483 0 128 128 0
0.563324 0.265384 1.497823 0 128 128 0
0.564146 0.261822 1.477718 0 128 128 0
0.564946 0.258354 1.458145 0 128 128 0
0.565725 0.254976 1.439084 0 128 128 0
0.566484 0.251686 1.420515 0 128 128 0
0.567224 0.248480 1.402418 0 128 128 0
0.567946 0.245355 1.384778 0 128 128 0
0.568649 0.242307 1.367575 0 128 128 0
0.517284 0.217453 1.227300 0 0 0 0
0.521419 0.216279 1.220678 0 0 0 0
0.525723 0.215207 1.214624 0 0 0 0
0.531178 0.214626 1.211348 0 0 0 0
0.538569 0.214833 1.212517 0 0 0 0
0.547406 0.215605 1.216869 0 0 0 0
0.555553 0.216088 1.219598 0 0 0 0
0.561875 0.215859 1.218303 0 0 0 0
0.567533 0.215383 1.215618 0 0 0 0
0.574061 0.215245 1.214838 0 0 0 0
0.579895 0.214853 1.212626 0 0 0 0
0.585607 0.214425 1.210213 0 0 0 0
0.593362 0.214747 1.212028 0 0 0 0
0.602314 0.215490 1.216220 0 0 0 0
0.609173 0.215475 1.216139 0 0 0 0
0.614707 0.214997 1.213442 0 0 0 0
0.615284 0.212816 1.201130 0 0 0 0
0.613050 0.209720 1.183659 0 0 0 0
0.611809 0.207028 1.168464 0 0 0 0
0.609115 0.203907 1.150849 0 0 0 0
0.604816 0.200321 1.130609 0 0 0 0
0.601541 0.197145 1.112686 0 0 0 0
0.600586 0.194788 1.099381 0 0 0 0
0.601134 0.192962 1.089075 0 0 0 0
0.604076 0.191934 1.083271 0 0 0 0
0.606747 0.190841 1.077102 0 0 0 0
0.494664 0.154036 0.869376 64 0 128 0
0.495494 0.152771 0.862237 64 0 128 0
0.496310 0.151527 0.855214 64 0 128 0
0.497113 0.150302 0.848305 64 0 128 0
0.497903 0.149098 0.841507 64 0 128 0
0.498681 0.147913 0.834817 64 0 128 0
0.499447 0.146746 0.828232 64 0 128 0
0.500200 0.145598 0.821751 64 0 128 0
0.500942 0.144467 0.815370 64 0 128 0
0.501672 0.143354 0.809087 64 0 128 0
0.502391 0.142258 0.802900 64 0 128 0
-1.398630 0.309858 1.703625 0 0 0 0
-1.175609 0.262261 1.441934 0 128 0 0
-1.173841 0.263702 1.449855 0 128 0 0
