ply
                       format ascii 1.0
                       element vertex 49152
                       property float x
                       property float y
                       property float z
                       property uchar red
                       property uchar green
                       property uchar blue
                       property uchar alpha
                       end_header
-50.462606 -14.248265 154.000000 0 0 0 0
-49.545104 -14.155744 153.000000 0 0 0 0
-48.955281 -14.155744 153.000000 0 0 0 0
-48.049345 -14.063223 152.000000 0 0 0 0
-47.151118 -13.970702 151.000000 0 0 0 0
-48.111025 -14.433308 156.000000 128 128 128 0
-47.509638 -14.433308 156.000000 128 128 128 0
-46.908250 -14.433308 156.000000 128 128 128 0
-46.010023 -14.340786 155.000000 128 128 128 0
-45.412490 -14.340786 155.000000 128 128 128 0
-44.814958 -14.340786 155.000000 128 128 128 0
-44.217425 -14.340786 155.000000 128 128 128 0
-43.619892 -14.340786 155.000000 128 128 128 0
-42.744796 -14.248265 154.000000 128 128 128 0
-43.245952 -14.618350 158.000000 128 0 0 0
-42.636854 -14.618350 158.000000 128 0 0 0
-42.027756 -14.618350 158.000000 128 0 0 0
-41.418658 -14.618350 158.000000 128 0 0 0
-40.809561 -14.618350 158.000000 128 0 0 0
-40.200463 -14.618350 158.000000 128 0 0 0
-39.591365 -14.618350 158.000000 128 0 0 0
-38.982267 -14.618350 158.000000 128 0 0 0
-38.373169 -14.618350 158.000000 128 0 0 0
-37.764071 -14.618350 158.000000 128 0 0 0
-37.154973 -14.618350 158.000000 128 0 0 0
-36.545875 -14.618350 158.000000 128 0 0 0
-35.936777 -14.618350 158.000000 128 0 0 0
-35.327679 -14.618350 158.000000 128 0 0 0
-34.718581 -14.618350 158.000000 128 0 0 0
-34.109483 -14.618350 158.000000 128 0 0 0
-33.500386 -14.618350 158.000000 128 0 0 0
-32.891288 -14.618350 158.000000 128 0 0 0
-32.282190 -14.618350 158.000000 128 0 0 0
-34.479568 -15.913647 172.000000 128 0 128 0
-33.816500 -15.913647 172.000000 128 0 128 0
-33.153431 -15.913647 172.000000 128 0 128 0
-32.490362 -15.913647 172.000000 128 0 128 0
-31.827294 -15.913647 172.000000 128 0 128 0
-31.164225 -15.913647 172.000000 128 0 128 0
-30.501157 -15.913647 172.000000 128 0 128 0
-29.838088 -15.913647 172.000000 128 0 128 0
-29.175019 -15.913647 172.000000 128 0 128 0
-28.511951 -15.913647 172.000000 128 0 128 0
-27.848882 -15.913647 172.000000 128 0 128 0
-27.185813 -15.913647 172.000000 128 0 128 0
-26.522745 -15.913647 172.000000 128 0 128 0
-25.859676 -15.913647 172.000000 128 0 128 0
-25.196608 -15.913647 172.000000 128 0 128 0
-24.533539 -15.913647 172.000000 128 0 128 0
-23.870470 -15.913647 172.000000 128 0 128 0
-23.207402 -15.913647 172.000000 128 0 128 0
-22.544333 -15.913647 172.000000 128 0 128 0
-21.881264 -15.913647 172.000000 128 0 128 0
-21.218196 -15.913647 172.000000 128 0 128 0
-20.555127 -15.913647 172.000000 128 0 128 0
-19.892059 -15.913647 172.000000 128 0 128 0
-19.228990 -15.913647 172.000000 128 0 128 0
-18.565921 -15.913647 172.000000 128 0 128 0
-17.902853 -15.913647 172.000000 128 0 128 0
-17.239784 -15.913647 172.000000 128 0 128 0
-16.576715 -15.913647 172.000000 128 0 128 0
-15.913647 -15.913647 172.000000 128 0 128 0
-15.250578 -15.913647 172.000000 128 0 128 0
-14.587510 -15.913647 172.000000 128 0 128 0
-12.791056 -14.618350 158.000000 128 0 0 0
-12.181958 -14.618350 158.000000 128 0 0 0
-11.572860 -14.618350 158.000000 128 0 0 0
-10.963763 -14.618350 158.000000 128 0 0 0
-10.354665 -14.618350 158.000000 128 0 0 0
-9.745567 -14.618350 158.000000 128 0 0 0
-9.136469 -14.618350 158.000000 128 0 0 0
-8.581342 -14.710871 159.000000 128 0 0 0
-7.968389 -14.710871 159.000000 128 0 0 0
-7.355436 -14.710871 159.000000 128 0 0 0
-6.742483 -14.710871 159.000000 128 0 0 0
-6.129530 -14.710871 159.000000 128 0 0 0
-5.516577 -14.710871 159.000000 128 0 0 0
-4.903624 -14.710871 159.000000 128 0 0 0
-4.290671 -14.710871 159.000000 128 0 0 0
-3.677718 -14.710871 159.000000 128 0 0 0
-3.064765 -14.710871 159.000000 128 0 0 0
-2.451812 -14.710871 159.000000 128 0 0 0
-1.838859 -14.710871 159.000000 128 0 0 0
-1.225906 -14.710871 159.000000 128 0 0 0
-0.612953 -14.710871 159.000000 128 0 0 0
0.000000 -14.710871 159.000000 128 0 0 0
0.612953 -14.710871 159.000000 128 0 0 0
1.225906 -14.710871 159.000000 128 0 0 0
1.838859 -14.710871 159.000000 128 0 0 0
2.451812 -14.710871 159.000000 128 0 0 0
3.064765 -14.710871 159.000000 128 0 0 0
3.677718 -14.710871 159.000000 128 0 0 0
4.290671 -14.710871 159.000000 128 0 0 0
4.903624 -14.710871 159.000000 128 0 0 0
5.516577 -14.710871 159.000000 128 0 0 0
6.129530 -14.710871 159.000000 128 0 0 0
6.742483 -14.710871 159.000000 128 0 0 0
7.355436 -14.710871 159.000000 128 0 0 0
7.968389 -14.710871 159.000000 128 0 0 0
8.581342 -14.710871 159.000000 128 0 0 0
9.194295 -14.710871 159.000000 128 0 0 0
9.807247 -14.710871 159.000000 128 0 0 0
10.420200 -14.710871 159.000000 128 0 0 0
11.033153 -14.710871 159.000000 128 0 0 0
11.646106 -14.710871 159.000000 128 0 0 0
12.259059 -14.710871 159.000000 128 0 0 0
12.872012 -14.710871 159.000000 128 0 0 0
13.484965 -14.710871 159.000000 128 0 0 0
14.097918 -14.710871 159.000000 128 0 0 0
14.710871 -14.710871 159.000000 128 0 0 0
15.323824 -14.710871 159.000000 128 0 0 0
15.936777 -14.710871 159.000000 128 0 0 0
16.549730 -14.710871 159.000000 128 0 0 0
17.162683 -14.710871 159.000000 128 0 0 0
17.775636 -14.710871 159.000000 128 0 0 0
18.388589 -14.710871 159.000000 128 0 0 0
19.001542 -14.710871 159.000000 128 0 0 0
19.614495 -14.710871 159.000000 128 0 0 0
20.227448 -14.710871 159.000000 128 0 0 0
19.267540 -13.600617 147.000000 0 128 0 0
20.104086 -13.785659 149.000000 0 128 0 0
20.817271 -13.878180 150.000000 0 128 0 0
21.680802 -14.063223 152.000000 0 128 0 0
22.413261 -14.155744 153.000000 0 128 0 0
23.153431 -14.248265 154.000000 0 128 0 0
24.055513 -14.433308 156.000000 0 128 0 0
24.814958 -14.525829 157.000000 0 128 0 0
25.582113 -14.618350 158.000000 0 128 0 0
26.522745 -14.803392 160.000000 0 128 0 0
27.309175 -14.895914 161.000000 0 128 0 0
28.103315 -14.988435 162.000000 0 128 0 0
28.905166 -15.080956 163.000000 0 128 0 0
29.895914 -15.265998 165.000000 0 128 0 0
30.717039 -15.358520 166.000000 0 128 0 0
31.545875 -15.451041 167.000000 0 128 0 0
32.382421 -15.543562 168.000000 0 128 0 0
33.226677 -15.636083 169.000000 0 128 0 0
34.078643 -15.728604 170.000000 0 128 0 0
34.938319 -15.821126 171.000000 0 128 0 0
35.805705 -15.913647 172.000000 0 128 0 0
36.680802 -16.006168 173.000000 0 128 0 0
37.563608 -16.098689 174.000000 0 128 0 0
38.454125 -16.191210 175.000000 0 128 0 0
39.128759 -16.191210 175.000000 0 128 0 0
40.030840 -16.283732 176.000000 0 128 0 0
38.164996 -15.265998 165.000000 0 0 0 0
39.036237 -15.358520 166.000000 0 0 0 0
39.915189 -15.451041 167.000000 0 0 0 0
41.044719 -15.636083 169.000000 0 0 0 0
41.942945 -15.728604 170.000000 0 0 0 0
42.848882 -15.821126 171.000000 0 0 0 0
44.016962 -16.006168 173.000000 0 0 0 0
45.200463 -16.191210 175.000000 0 0 0 0
46.137240 -16.283732 176.000000 0 0 0 0
47.081727 -16.376253 177.000000 0 0 0 0
48.303778 -16.561295 179.000000 0 0 0 0
49.267540 -16.653816 180.000000 0 0 0 0
50.239013 -16.746338 181.000000 0 0 0 0
51.218196 -16.838859 182.000000 0 0 0 0
52.205089 -16.931380 183.000000 0 0 0 0
53.199692 -17.023901 184.000000 0 0 0 0
54.202005 -17.116423 185.000000 0 0 0 0
55.212028 -17.208944 186.000000 0 0 0 0
56.229761 -17.301465 187.000000 0 0 0 0
56.950655 -17.301465 187.000000 0 0 0 0
57.979954 -17.393986 188.000000 0 0 0 0
59.016962 -17.486507 189.000000 0 0 0 0
60.061681 -17.579029 190.000000 0 0 0 0
60.794140 -17.579029 190.000000 0 0 0 0
62.174248 -17.764071 192.000000 64 0 0 0
62.914418 -17.764071 192.000000 64 0 0 0
63.654588 -17.764071 192.000000 64 0 0 0
64.394757 -17.764071 192.000000 64 0 0 0
65.474171 -17.856592 193.000000 64 0 0 0
66.218196 -17.856592 193.000000 64 0 0 0
66.962221 -17.856592 193.000000 64 0 0 0
67.706245 -17.856592 193.000000 64 0 0 0
68.450270 -17.856592 193.000000 64 0 0 0
69.552814 -17.949113 194.000000 64 0 0 0
70.300694 -17.949113 194.000000 64 0 0 0
71.048574 -17.949113 194.000000 64 0 0 0
-112.259059 -16.137240 182.000000 0 0 0 0
-116.461064 -16.846569 190.000000 0 0 0 0
-115.728604 -16.846569 190.000000 0 0 0 0
-114.996145 -16.846569 190.000000 0 0 0 0
-120.277564 -17.733231 200.000000 192 0 0 0
-119.506554 -17.733231 200.000000 192 0 0 0
-118.141866 -17.644564 199.000000 192 0 0 0
-117.374711 -17.644564 199.000000 192 0 0 0
-116.021588 -17.555898 198.000000 192 0 0 0
-115.258288 -17.555898 198.000000 192 0 0 0
-114.494988 -17.555898 198.000000 192 0 0 0
-113.157286 -17.467232 197.000000 192 0 0 0
-112.397841 -17.467232 197.000000 192 0 0 0
-105.971473 -16.580571 187.000000 0 0 0 0
-104.687741 -16.491904 186.000000 0 0 0 0
-103.411719 -16.403238 185.000000 0 0 0 0
-102.143408 -16.314572 184.000000 0 0 0 0
-100.882806 -16.225906 183.000000 0 0 0 0
-99.629915 -16.137240 182.000000 0 0 0 0
-98.928296 -16.137240 182.000000 0 0 0 0
-97.686970 -16.048574 181.000000 0 0 0 0
-96.989206 -16.048574 181.000000 0 0 0 0
-95.759445 -15.959907 180.000000 0 0 0 0
-95.065536 -15.959907 180.000000 0 0 0 0
-94.371627 -15.959907 180.000000 0 0 0 0
-93.157286 -15.871241 179.000000 0 0 0 0
-92.467232 -15.871241 179.000000 0 0 0 0
-91.777178 -15.871241 179.000000 0 0 0 0
-91.087124 -15.871241 179.000000 0 0 0 0
-90.902082 -15.959907 180.000000 0 0 0 0
-90.208173 -15.959907 180.000000 0 0 0 0
-89.514264 -15.959907 180.000000 0 0 0 0
-88.820355 -15.959907 180.000000 0 0 0 0
-88.126446 -15.959907 180.000000 0 0 0 0
-87.432537 -15.959907 180.000000 0 0 0 0
-87.220509 -16.048574 181.000000 0 0 0 0
-86.522745 -16.048574 181.000000 0 0 0 0
-85.824981 -16.048574 181.000000 0 0 0 0
-85.127217 -16.048574 181.000000 0 0 0 0
-83.962992 -15.959907 180.000000 0 0 0 0
-83.269082 -15.959907 180.000000 0 0 0 0
-82.575173 -15.959907 180.000000 0 0 0 0
-81.881264 -15.959907 180.000000 0 0 0 0
-80.736315 -15.871241 179.000000 0 0 0 0
-80.046261 -15.871241 179.000000 0 0 0 0
-79.799537 -15.959907 180.000000 0 0 0 0
-79.105628 -15.959907 180.000000 0 0 0 0
-77.976099 -15.871241 179.000000 0 0 0 0
-75.558982 -15.516577 175.000000 0 0 0 0
-74.028527 -15.339244 173.000000 0 0 0 0
-73.785659 -15.427911 174.000000 192 0 0 0
-73.114880 -15.427911 174.000000 192 0 0 0
-72.027756 -15.339244 173.000000 192 0 0 0
-70.948342 -15.250578 172.000000 192 0 0 0
-69.876638 -15.161912 171.000000 192 0 0 0
-68.812645 -15.073246 170.000000 192 0 0 0
-67.756361 -14.984580 169.000000 192 0 0 0
-66.707787 -14.895914 168.000000 192 0 0 0
-65.666924 -14.807247 167.000000 192 0 0 0
-64.633770 -14.718581 166.000000 192 0 0 0
-63.608327 -14.629915 165.000000 192 0 0 0
-61.063994 -14.186584 160.000000 0 0 0 0
-60.824981 -14.275251 161.000000 0 0 0 0
-59.830378 -14.186584 160.000000 0 0 0 0
-59.213570 -14.186584 160.000000 0 0 0 0
-58.596762 -14.186584 160.000000 0 0 0 0
-57.979954 -14.186584 160.000000 0 0 0 0
-57.363146 -14.186584 160.000000 0 0 0 0
-56.391673 -14.097918 159.000000 0 0 0 0
-55.778720 -14.097918 159.000000 0 0 0 0
-55.165767 -14.097918 159.000000 0 0 0 0
-54.209715 -14.009252 158.000000 0 0 0 0
-53.261372 -13.920586 157.000000 0 0 0 0
-51.985351 -13.743254 155.000000 0 0 0 0
-51.056284 -13.654588 154.000000 0 0 0 0
-50.462606 -13.654588 154.000000 0 0 0 0
-49.545104 -13.565921 153.000000 0 0 0 0
-48.955281 -13.565921 153.000000 0 0 0 0
-48.049345 -13.477255 152.000000 0 0 0 0
-47.151118 -13.388589 151.000000 0 0 0 0
-46.260601 -13.299923 150.000000 0 0 0 0
-47.509638 -13.831920 156.000000 128 128 128 0
-46.908250 -13.831920 156.000000 128 128 128 0
-46.010023 -13.743254 155.000000 128 128 128 0
-45.412490 -13.743254 155.000000 128 128 128 0
-44.814958 -13.743254 155.000000 128 128 128 0
-44.217425 -13.743254 155.000000 128 128 128 0
-43.619892 -13.743254 155.000000 128 128 128 0
-42.744796 -13.654588 154.000000 128 128 128 0
-43.245952 -14.009252 158.000000 128 0 0 0
-42.636854 -14.009252 158.000000 128 0 0 0
-42.027756 -14.009252 158.000000 128 0 0 0
-41.418658 -14.009252 158.000000 128 0 0 0
-40.809561 -14.009252 158.000000 128 0 0 0
-40.200463 -14.009252 158.000000 128 0 0 0
-39.591365 -14.009252 158.000000 128 0 0 0
-38.982267 -14.009252 158.000000 128 0 0 0
-38.373169 -14.009252 158.000000 128 0 0 0
-37.764071 -14.009252 158.000000 128 0 0 0
-37.154973 -14.009252 158.000000 128 0 0 0
-36.545875 -14.009252 158.000000 128 0 0 0
-35.936777 -14.009252 158.000000 128 0 0 0
-35.327679 -14.009252 158.000000 128 0 0 0
-34.718581 -14.009252 158.000000 128 0 0 0
-34.109483 -14.009252 158.000000 128 0 0 0
-33.500386 -14.009252 158.000000 128 0 0 0
-32.891288 -14.009252 158.000000 128 0 0 0
-32.282190 -14.009252 158.000000 128 0 0 0
-31.272167 -13.831920 156.000000 0 0 0 0
-31.063994 -14.009252 158.000000 128 0 0 0
-33.153431 -15.250578 172.000000 128 0 128 0
-32.490362 -15.250578 172.000000 128 0 128 0
-31.827294 -15.250578 172.000000 128 0 128 0
-31.164225 -15.250578 172.000000 128 0 128 0
-30.501157 -15.250578 172.000000 128 0 128 0
-30.011565 -15.339244 173.000000 128 0 128 0
-29.344641 -15.339244 173.000000 128 0 128 0
-28.677718 -15.339244 173.000000 128 0 128 0
-28.010794 -15.339244 173.000000 128 0 128 0
-27.343870 -15.339244 173.000000 128 0 128 0
-26.676947 -15.339244 173.000000 128 0 128 0
-26.010023 -15.339244 173.000000 128 0 128 0
-25.343099 -15.339244 173.000000 128 0 128 0
-24.676176 -15.339244 173.000000 128 0 128 0
-24.009252 -15.339244 173.000000 128 0 128 0
-23.342328 -15.339244 173.000000 128 0 128 0
-22.675405 -15.339244 173.000000 128 0 128 0
-22.008481 -15.339244 173.000000 128 0 128 0
-21.341557 -15.339244 173.000000 128 0 128 0
-20.674634 -15.339244 173.000000 128 0 128 0
-20.007710 -15.339244 173.000000 128 0 128 0
-19.340786 -15.339244 173.000000 128 0 128 0
-18.673863 -15.339244 173.000000 128 0 128 0
-18.006939 -15.339244 173.000000 128 0 128 0
-17.340015 -15.339244 173.000000 128 0 128 0
-16.673092 -15.339244 173.000000 128 0 128 0
-16.006168 -15.339244 173.000000 128 0 128 0
-15.339244 -15.339244 173.000000 128 0 128 0
-14.672321 -15.339244 173.000000 128 0 128 0
-12.791056 -14.009252 158.000000 128 0 0 0
-12.181958 -14.009252 158.000000 128 0 0 0
-11.572860 -14.009252 158.000000 128 0 0 0
-10.963763 -14.009252 158.000000 128 0 0 0
-10.354665 -14.009252 158.000000 128 0 0 0
-9.745567 -14.009252 158.000000 128 0 0 0
-9.136469 -14.009252 158.000000 128 0 0 0
-8.527371 -14.009252 158.000000 128 0 0 0
-7.918273 -14.009252 158.000000 128 0 0 0
-7.309175 -14.009252 158.000000 128 0 0 0
-6.700077 -14.009252 158.000000 128 0 0 0
-6.090979 -14.009252 158.000000 128 0 0 0
-5.481881 -14.009252 158.000000 128 0 0 0
-4.872783 -14.009252 158.000000 128 0 0 0
-4.263685 -14.009252 158.000000 128 0 0 0
-3.654588 -14.009252 158.000000 128 0 0 0
-3.064765 -14.097918 159.000000 128 0 0 0
-2.451812 -14.097918 159.000000 128 0 0 0
-1.838859 -14.097918 159.000000 128 0 0 0
-1.225906 -14.097918 159.000000 128 0 0 0
-0.612953 -14.097918 159.000000 128 0 0 0
0.000000 -14.097918 159.000000 128 0 0 0
0.612953 -14.097918 159.000000 128 0 0 0
1.225906 -14.097918 159.000000 128 0 0 0
1.838859 -14.097918 159.000000 128 0 0 0
2.451812 -14.097918 159.000000 128 0 0 0
3.064765 -14.097918 159.000000 128 0 0 0
3.677718 -14.097918 159.000000 128 0 0 0
4.290671 -14.097918 159.000000 128 0 0 0
4.903624 -14.097918 159.000000 128 0 0 0
5.516577 -14.097918 159.000000 128 0 0 0
6.129530 -14.097918 159.000000 128 0 0 0
6.742483 -14.097918 159.000000 128 0 0 0
7.355436 -14.097918 159.000000 128 0 0 0
7.968389 -14.097918 159.000000 128 0 0 0
8.581342 -14.097918 159.000000 128 0 0 0
9.194295 -14.097918 159.000000 128 0 0 0
9.807247 -14.097918 159.000000 128 0 0 0
10.420200 -14.097918 159.000000 128 0 0 0
11.033153 -14.097918 159.000000 128 0 0 0
11.646106 -14.097918 159.000000 128 0 0 0
12.259059 -14.097918 159.000000 128 0 0 0
12.872012 -14.097918 159.000000 128 0 0 0
13.484965 -14.097918 159.000000 128 0 0 0
14.097918 -14.097918 159.000000 128 0 0 0
14.710871 -14.097918 159.000000 128 0 0 0
15.323824 -14.097918 159.000000 128 0 0 0
15.936777 -14.097918 159.000000 128 0 0 0
16.549730 -14.097918 159.000000 128 0 0 0
17.162683 -14.097918 159.000000 128 0 0 0
17.775636 -14.097918 159.000000 128 0 0 0
18.388589 -14.097918 159.000000 128 0 0 0
19.001542 -14.097918 159.000000 128 0 0 0
19.614495 -14.097918 159.000000 128 0 0 0
20.227448 -14.097918 159.000000 128 0 0 0
19.267540 -13.033924 147.000000 0 128 0 0
20.104086 -13.211257 149.000000 0 128 0 0
20.817271 -13.299923 150.000000 0 128 0 0
21.680802 -13.477255 152.000000 0 128 0 0
22.413261 -13.565921 153.000000 0 128 0 0
23.153431 -13.654588 154.000000 0 128 0 0
24.055513 -13.831920 156.000000 0 128 0 0
24.814958 -13.920586 157.000000 0 128 0 0
25.582113 -14.009252 158.000000 0 128 0 0
26.522745 -14.186584 160.000000 0 128 0 0
27.309175 -14.275251 161.000000 0 128 0 0
28.103315 -14.363917 162.000000 0 128 0 0
28.905166 -14.452583 163.000000 0 128 0 0
29.714726 -14.541249 164.000000 0 128 0 0
30.717039 -14.718581 166.000000 0 128 0 0
31.545875 -14.807247 167.000000 0 128 0 0
32.382421 -14.895914 168.000000 0 128 0 0
33.226677 -14.984580 169.000000 0 128 0 0
34.078643 -15.073246 170.000000 0 128 0 0
34.938319 -15.161912 171.000000 0 128 0 0
35.805705 -15.250578 172.000000 0 128 0 0
36.680802 -15.339244 173.000000 0 128 0 0
37.563608 -15.427911 174.000000 0 128 0 0
38.454125 -15.516577 175.000000 0 128 0 0
39.128759 -15.516577 175.000000 0 128 0 0
36.846569 -14.363917 162.000000 0 0 0 0
37.933693 -14.541249 164.000000 0 0 0 0
39.036237 -14.718581 166.000000 0 0 0 0
39.915189 -14.807247 167.000000 0 0 0 0
40.801850 -14.895914 168.000000 0 0 0 0
41.942945 -15.073246 170.000000 0 0 0 0
42.848882 -15.161912 171.000000 0 0 0 0
44.016962 -15.339244 173.000000 0 0 0 0
45.200463 -15.516577 175.000000 0 0 0 0
46.137240 -15.605243 176.000000 0 0 0 0
47.081727 -15.693909 177.000000 0 0 0 0
48.033924 -15.782575 178.000000 0 0 0 0
48.993832 -15.871241 179.000000 0 0 0 0
49.961449 -15.959907 180.000000 0 0 0 0
50.936777 -16.048574 181.000000 0 0 0 0
51.919815 -16.137240 182.000000 0 0 0 0
52.910563 -16.225906 183.000000 0 0 0 0
53.909021 -16.314572 184.000000 0 0 0 0
54.915189 -16.403238 185.000000 0 0 0 0
55.929067 -16.491904 186.000000 0 0 0 0
56.950655 -16.580571 187.000000 0 0 0 0
57.979954 -16.669237 188.000000 0 0 0 0
59.016962 -16.757903 189.000000 0 0 0 0
59.745567 -16.757903 189.000000 0 0 0 0
61.114109 -16.935235 191.000000 64 0 0 0
62.174248 -17.023901 192.000000 64 0 0 0
62.914418 -17.023901 192.000000 64 0 0 0
63.654588 -17.023901 192.000000 64 0 0 0
64.394757 -17.023901 192.000000 64 0 0 0
65.474171 -17.112567 193.000000 64 0 0 0
66.218196 -17.112567 193.000000 64 0 0 0
66.962221 -17.112567 193.000000 64 0 0 0
67.706245 -17.112567 193.000000 64 0 0 0
68.450270 -17.112567 193.000000 64 0 0 0
69.552814 -17.201234 194.000000 64 0 0 0
70.300694 -17.201234 194.000000 64 0 0 0
71.048574 -17.201234 194.000000 64 0 0 0
-111.642251 -15.350810 181.000000 0 0 0 0
-116.461064 -16.114109 190.000000 0 0 0 0
-115.728604 -16.114109 190.000000 0 0 0 0
-114.390902 -16.029298 189.000000 0 0 0 0
-120.277564 -16.962221 200.000000 192 0 0 0
-119.506554 -16.962221 200.000000 192 0 0 0
-118.141866 -16.877409 199.000000 192 0 0 0
-117.374711 -16.877409 199.000000 192 0 0 0
-116.021588 -16.792598 198.000000 192 0 0 0
-115.258288 -16.792598 198.000000 192 0 0 0
-114.494988 -16.792598 198.000000 192 0 0 0
-113.157286 -16.707787 197.000000 192 0 0 0
-112.397841 -16.707787 197.000000 192 0 0 0
-105.971473 -15.859676 187.000000 0 0 0 0
-105.250578 -15.859676 187.000000 0 0 0 0
-103.970702 -15.774865 186.000000 0 0 0 0
-102.698535 -15.690054 185.000000 0 0 0 0
-100.882806 -15.520432 183.000000 0 0 0 0
-99.629915 -15.435621 182.000000 0 0 0 0
-98.928296 -15.435621 182.000000 0 0 0 0
-97.686970 -15.350810 181.000000 0 0 0 0
-96.989206 -15.350810 181.000000 0 0 0 0
-95.759445 -15.265998 180.000000 0 0 0 0
-95.065536 -15.265998 180.000000 0 0 0 0
-94.371627 -15.265998 180.000000 0 0 0 0
-93.677718 -15.265998 180.000000 0 0 0 0
-92.467232 -15.181187 179.000000 0 0 0 0
-92.289900 -15.265998 180.000000 0 0 0 0
-91.595991 -15.265998 180.000000 0 0 0 0
-90.902082 -15.265998 180.000000 0 0 0 0
-90.208173 -15.265998 180.000000 0 0 0 0
-89.514264 -15.265998 180.000000 0 0 0 0
-88.820355 -15.265998 180.000000 0 0 0 0
-88.126446 -15.265998 180.000000 0 0 0 0
-87.918273 -15.350810 181.000000 0 0 0 0
-87.220509 -15.350810 181.000000 0 0 0 0
-86.522745 -15.350810 181.000000 0 0 0 0
-85.824981 -15.350810 181.000000 0 0 0 0
-85.127217 -15.350810 181.000000 0 0 0 0
-83.962992 -15.265998 180.000000 0 0 0 0
-83.269082 -15.265998 180.000000 0 0 0 0
-82.575173 -15.265998 180.000000 0 0 0 0
-81.881264 -15.265998 180.000000 0 0 0 0
-80.736315 -15.181187 179.000000 0 0 0 0
-80.046261 -15.181187 179.000000 0 0 0 0
-79.799537 -15.265998 180.000000 0 0 0 0
-79.105628 -15.265998 180.000000 0 0 0 0
-77.976099 -15.181187 179.000000 0 0 0 0
-75.990748 -14.926754 176.000000 0 0 0 0
-74.028527 -14.672321 173.000000 0 0 0 0
-73.785659 -14.757132 174.000000 192 0 0 0
-73.114880 -14.757132 174.000000 192 0 0 0
-72.027756 -14.672321 173.000000 192 0 0 0
-70.948342 -14.587510 172.000000 192 0 0 0
-69.876638 -14.502699 171.000000 192 0 0 0
-68.812645 -14.417887 170.000000 192 0 0 0
-67.756361 -14.333076 169.000000 192 0 0 0
-66.707787 -14.248265 168.000000 192 0 0 0
-65.666924 -14.163454 167.000000 192 0 0 0
-64.633770 -14.078643 166.000000 192 0 0 0
-63.608327 -13.993832 165.000000 192 0 0 0
-61.445644 -13.654588 161.000000 0 0 0 0
-60.824981 -13.654588 161.000000 0 0 0 0
-60.578258 -13.739399 162.000000 0 0 0 0
-59.583655 -13.654588 161.000000 0 0 0 0
-58.962992 -13.654588 161.000000 0 0 0 0
-58.342328 -13.654588 161.000000 0 0 0 0
-57.721665 -13.654588 161.000000 0 0 0 0
-56.746338 -13.569776 160.000000 0 0 0 0
-55.778720 -13.484965 159.000000 0 0 0 0
-55.165767 -13.484965 159.000000 0 0 0 0
-54.552814 -13.484965 159.000000 0 0 0 0
-53.261372 -13.315343 157.000000 0 0 0 0
-52.320740 -13.230532 156.000000 0 0 0 0
-51.056284 -13.060910 154.000000 0 0 0 0
-50.462606 -13.060910 154.000000 0 0 0 0
-49.545104 -12.976099 153.000000 0 0 0 0
-48.955281 -12.976099 153.000000 0 0 0 0
-48.049345 -12.891288 152.000000 0 0 0 0
-47.151118 -12.806476 151.000000 0 0 0 0
-46.260601 -12.721665 150.000000 0 0 0 0
-45.377795 -12.636854 149.000000 0 0 0 0
-46.908250 -13.230532 156.000000 128 128 128 0
-46.010023 -13.145721 155.000000 128 128 128 0
-45.412490 -13.145721 155.000000 128 128 128 0
-44.814958 -13.145721 155.000000 128 128 128 0
-44.217425 -13.145721 155.000000 128 128 128 0
-43.619892 -13.145721 155.000000 128 128 128 0
-42.744796 -13.060910 154.000000 128 128 128 0
-43.245952 -13.400154 158.000000 128 0 0 0
-42.636854 -13.400154 158.000000 128 0 0 0
-42.027756 -13.400154 158.000000 128 0 0 0
-41.418658 -13.400154 158.000000 128 0 0 0
-40.809561 -13.400154 158.000000 128 0 0 0
-40.200463 -13.400154 158.000000 128 0 0 0
-39.591365 -13.400154 158.000000 128 0 0 0
-38.982267 -13.400154 158.000000 128 0 0 0
-38.373169 -13.400154 158.000000 128 0 0 0
-37.764071 -13.400154 158.000000 128 0 0 0
-37.154973 -13.400154 158.000000 128 0 0 0
-36.545875 -13.400154 158.000000 128 0 0 0
-35.936777 -13.400154 158.000000 128 0 0 0
-35.327679 -13.400154 158.000000 128 0 0 0
-34.718581 -13.400154 158.000000 128 0 0 0
-34.109483 -13.400154 158.000000 128 0 0 0
-33.500386 -13.400154 158.000000 128 0 0 0
-32.891288 -13.400154 158.000000 128 0 0 0
-32.282190 -13.400154 158.000000 128 0 0 0
-30.871241 -13.060910 154.000000 0 0 0 0
-31.063994 -13.400154 158.000000 128 0 0 0
-30.454896 -13.400154 158.000000 128 0 0 0
-32.679260 -14.672321 173.000000 128 0 128 0
-32.012336 -14.672321 173.000000 128 0 128 0
-31.345412 -14.672321 173.000000 128 0 128 0
-30.678489 -14.672321 173.000000 128 0 128 0
-30.011565 -14.672321 173.000000 128 0 128 0
-29.344641 -14.672321 173.000000 128 0 128 0
-28.677718 -14.672321 173.000000 128 0 128 0
-28.010794 -14.672321 173.000000 128 0 128 0
-27.343870 -14.672321 173.000000 128 0 128 0
-26.676947 -14.672321 173.000000 128 0 128 0
-26.010023 -14.672321 173.000000 128 0 128 0
-25.343099 -14.672321 173.000000 128 0 128 0
-24.676176 -14.672321 173.000000 128 0 128 0
-24.009252 -14.672321 173.000000 128 0 128 0
-23.342328 -14.672321 173.000000 128 0 128 0
-22.675405 -14.672321 173.000000 128 0 128 0
-22.008481 -14.672321 173.000000 128 0 128 0
-21.341557 -14.672321 173.000000 128 0 128 0
-20.674634 -14.672321 173.000000 128 0 128 0
-20.007710 -14.672321 173.000000 128 0 128 0
-19.340786 -14.672321 173.000000 128 0 128 0
-18.673863 -14.672321 173.000000 128 0 128 0
-18.006939 -14.672321 173.000000 128 0 128 0
-17.340015 -14.672321 173.000000 128 0 128 0
-16.673092 -14.672321 173.000000 128 0 128 0
-16.006168 -14.672321 173.000000 128 0 128 0
-15.339244 -14.672321 173.000000 128 0 128 0
-13.400154 -13.400154 158.000000 128 0 0 0
-12.791056 -13.400154 158.000000 128 0 0 0
-12.181958 -13.400154 158.000000 128 0 0 0
-11.572860 -13.400154 158.000000 128 0 0 0
-10.963763 -13.400154 158.000000 128 0 0 0
-10.354665 -13.400154 158.000000 128 0 0 0
-9.745567 -13.400154 158.000000 128 0 0 0
-9.136469 -13.400154 158.000000 128 0 0 0
-8.527371 -13.400154 158.000000 128 0 0 0
-7.918273 -13.400154 158.000000 128 0 0 0
-7.309175 -13.400154 158.000000 128 0 0 0
-6.700077 -13.400154 158.000000 128 0 0 0
-6.090979 -13.400154 158.000000 128 0 0 0
-5.481881 -13.400154 158.000000 128 0 0 0
-4.872783 -13.400154 158.000000 128 0 0 0
-4.263685 -13.400154 158.000000 128 0 0 0
-3.654588 -13.400154 158.000000 128 0 0 0
-3.045490 -13.400154 158.000000 128 0 0 0
-2.436392 -13.400154 158.000000 128 0 0 0
-1.827294 -13.400154 158.000000 128 0 0 0
-1.218196 -13.400154 158.000000 128 0 0 0
-0.609098 -13.400154 158.000000 128 0 0 0
0.000000 -13.400154 158.000000 128 0 0 0
0.609098 -13.400154 158.000000 128 0 0 0
1.218196 -13.400154 158.000000 128 0 0 0
1.838859 -13.484965 159.000000 128 0 0 0
2.451812 -13.484965 159.000000 128 0 0 0
3.064765 -13.484965 159.000000 128 0 0 0
3.677718 -13.484965 159.000000 128 0 0 0
4.290671 -13.484965 159.000000 128 0 0 0
4.903624 -13.484965 159.000000 128 0 0 0
5.516577 -13.484965 159.000000 128 0 0 0
6.129530 -13.484965 159.000000 128 0 0 0
6.742483 -13.484965 159.000000 128 0 0 0
7.355436 -13.484965 159.000000 128 0 0 0
7.968389 -13.484965 159.000000 128 0 0 0
8.581342 -13.484965 159.000000 128 0 0 0
9.194295 -13.484965 159.000000 128 0 0 0
9.807247 -13.484965 159.000000 128 0 0 0
10.420200 -13.484965 159.000000 128 0 0 0
11.033153 -13.484965 159.000000 128 0 0 0
11.646106 -13.484965 159.000000 128 0 0 0
12.259059 -13.484965 159.000000 128 0 0 0
12.872012 -13.484965 159.000000 128 0 0 0
13.484965 -13.484965 159.000000 128 0 0 0
14.097918 -13.484965 159.000000 128 0 0 0
14.710871 -13.484965 159.000000 128 0 0 0
15.323824 -13.484965 159.000000 128 0 0 0
15.936777 -13.484965 159.000000 128 0 0 0
16.549730 -13.484965 159.000000 128 0 0 0
17.162683 -13.484965 159.000000 128 0 0 0
17.775636 -13.484965 159.000000 128 0 0 0
18.388589 -13.484965 159.000000 128 0 0 0
19.001542 -13.484965 159.000000 128 0 0 0
19.614495 -13.484965 159.000000 128 0 0 0
20.227448 -13.484965 159.000000 128 0 0 0
19.267540 -12.467232 147.000000 0 128 0 0
19.969160 -12.552043 148.000000 0 128 0 0
20.817271 -12.721665 150.000000 0 128 0 0
21.680802 -12.891288 152.000000 0 128 0 0
22.413261 -12.976099 153.000000 0 128 0 0
23.153431 -13.060910 154.000000 0 128 0 0
24.055513 -13.230532 156.000000 0 128 0 0
24.814958 -13.315343 157.000000 0 128 0 0
25.582113 -13.400154 158.000000 0 128 0 0
26.522745 -13.569776 160.000000 0 128 0 0
27.309175 -13.654588 161.000000 0 128 0 0
28.103315 -13.739399 162.000000 0 128 0 0
28.905166 -13.824210 163.000000 0 128 0 0
29.714726 -13.909021 164.000000 0 128 0 0
30.717039 -14.078643 166.000000 0 128 0 0
31.545875 -14.163454 167.000000 0 128 0 0
32.382421 -14.248265 168.000000 0 128 0 0
33.226677 -14.333076 169.000000 0 128 0 0
34.078643 -14.417887 170.000000 0 128 0 0
34.938319 -14.502699 171.000000 0 128 0 0
35.805705 -14.587510 172.000000 0 128 0 0
36.680802 -14.672321 173.000000 0 128 0 0
37.563608 -14.757132 174.000000 0 128 0 0
38.454125 -14.841943 175.000000 0 128 0 0
39.128759 -14.841943 175.000000 0 128 0 0
36.846569 -13.739399 162.000000 0 0 0 0
37.933693 -13.909021 164.000000 0 0 0 0
38.801079 -13.993832 165.000000 0 0 0 0
39.915189 -14.163454 167.000000 0 0 0 0
40.801850 -14.248265 168.000000 0 0 0 0
41.942945 -14.417887 170.000000 0 0 0 0
42.848882 -14.502699 171.000000 0 0 0 0
44.016962 -14.672321 173.000000 0 0 0 0
45.200463 -14.841943 175.000000 0 0 0 0
46.137240 -14.926754 176.000000 0 0 0 0
47.081727 -15.011565 177.000000 0 0 0 0
48.033924 -15.096376 178.000000 0 0 0 0
48.993832 -15.181187 179.000000 0 0 0 0
49.961449 -15.265998 180.000000 0 0 0 0
50.936777 -15.350810 181.000000 0 0 0 0
51.919815 -15.435621 182.000000 0 0 0 0
52.910563 -15.520432 183.000000 0 0 0 0
53.909021 -15.605243 184.000000 0 0 0 0
54.915189 -15.690054 185.000000 0 0 0 0
55.929067 -15.774865 186.000000 0 0 0 0
56.950655 -15.859676 187.000000 0 0 0 0
57.671550 -15.859676 187.000000 0 0 0 0
58.704703 -15.944487 188.000000 0 0 0 0
59.745567 -16.029298 189.000000 0 0 0 0
61.114109 -16.198921 191.000000 64 0 0 0
62.174248 -16.283732 192.000000 64 0 0 0
62.914418 -16.283732 192.000000 64 0 0 0
63.654588 -16.283732 192.000000 64 0 0 0
64.394757 -16.283732 192.000000 64 0 0 0
65.134927 -16.283732 192.000000 64 0 0 0
66.218196 -16.368543 193.000000 64 0 0 0
66.962221 -16.368543 193.000000 64 0 0 0
67.706245 -16.368543 193.000000 64 0 0 0
68.450270 -16.368543 193.000000 64 0 0 0
69.552814 -16.453354 194.000000 64 0 0 0
70.300694 -16.453354 194.000000 64 0 0 0
71.048574 -16.453354 194.000000 64 0 0 0
-111.642251 -14.653045 181.000000 0 0 0 0
-116.461064 -15.381650 190.000000 0 0 0 0
-115.119507 -15.300694 189.000000 0 0 0 0
-121.048574 -16.191210 200.000000 192 0 0 0
-120.277564 -16.191210 200.000000 192 0 0 0
-119.506554 -16.191210 200.000000 192 0 0 0
-118.141866 -16.110254 199.000000 192 0 0 0
-117.374711 -16.110254 199.000000 192 0 0 0
-116.607556 -16.110254 199.000000 192 0 0 0
-115.258288 -16.029298 198.000000 192 0 0 0
-114.494988 -16.029298 198.000000 192 0 0 0
-113.157286 -15.948342 197.000000 192 0 0 0
-112.397841 -15.948342 197.000000 192 0 0 0
-105.971473 -15.138782 187.000000 0 0 0 0
-105.250578 -15.138782 187.000000 0 0 0 0
-103.970702 -15.057826 186.000000 0 0 0 0
-102.143408 -14.895914 184.000000 0 0 0 0
-100.882806 -14.814958 183.000000 0 0 0 0
-99.629915 -14.734002 182.000000 0 0 0 0
-98.928296 -14.734002 182.000000 0 0 0 0
-98.226677 -14.734002 182.000000 0 0 0 0
-96.989206 -14.653045 181.000000 0 0 0 0
-96.291442 -14.653045 181.000000 0 0 0 0
-95.065536 -14.572089 180.000000 0 0 0 0
-94.371627 -14.572089 180.000000 0 0 0 0
-93.677718 -14.572089 180.000000 0 0 0 0
-92.983809 -14.572089 180.000000 0 0 0 0
-92.289900 -14.572089 180.000000 0 0 0 0
-91.595991 -14.572089 180.000000 0 0 0 0
-90.902082 -14.572089 180.000000 0 0 0 0
-90.208173 -14.572089 180.000000 0 0 0 0
-89.514264 -14.572089 180.000000 0 0 0 0
-88.820355 -14.572089 180.000000 0 0 0 0
-88.616037 -14.653045 181.000000 0 0 0 0
-87.918273 -14.653045 181.000000 0 0 0 0
-87.220509 -14.653045 181.000000 0 0 0 0
-86.522745 -14.653045 181.000000 0 0 0 0
-85.824981 -14.653045 181.000000 0 0 0 0
-85.127217 -14.653045 181.000000 0 0 0 0
-84.429453 -14.653045 181.000000 0 0 0 0
-83.731689 -14.653045 181.000000 0 0 0 0
-82.575173 -14.572089 180.000000 0 0 0 0
-81.881264 -14.572089 180.000000 0 0 0 0
-81.187355 -14.572089 180.000000 0 0 0 0
-80.046261 -14.491133 179.000000 0 0 0 0
-79.799537 -14.572089 180.000000 0 0 0 0
-79.105628 -14.572089 180.000000 0 0 0 0
-77.540478 -14.410177 178.000000 0 0 0 0
-75.990748 -14.248265 176.000000 0 0 0 0
-74.456438 -14.086353 174.000000 0 0 0 0
-74.209715 -14.167309 175.000000 192 0 0 0
-73.114880 -14.086353 174.000000 192 0 0 0
-72.027756 -14.005397 173.000000 192 0 0 0
-70.948342 -13.924441 172.000000 192 0 0 0
-69.876638 -13.843485 171.000000 192 0 0 0
-68.812645 -13.762529 170.000000 192 0 0 0
-67.756361 -13.681573 169.000000 192 0 0 0
-66.707787 -13.600617 168.000000 192 0 0 0
-65.666924 -13.519661 167.000000 192 0 0 0
-64.633770 -13.438705 166.000000 192 0 0 0
-63.608327 -13.357749 165.000000 192 0 0 0
-62.590594 -13.276793 164.000000 192 0 0 0
-61.202776 -13.114880 162.000000 0 0 0 0
-60.952197 -13.195837 163.000000 0 0 0 0
-59.953739 -13.114880 162.000000 0 0 0 0
-58.962992 -13.033924 161.000000 0 0 0 0
-58.342328 -13.033924 161.000000 0 0 0 0
-57.721665 -13.033924 161.000000 0 0 0 0
-57.101002 -13.033924 161.000000 0 0 0 0
-56.129530 -12.952968 160.000000 0 0 0 0
-55.165767 -12.872012 159.000000 0 0 0 0
-54.552814 -12.872012 159.000000 0 0 0 0
-53.600617 -12.791056 158.000000 0 0 0 0
-52.320740 -12.629144 156.000000 0 0 0 0
-51.387818 -12.548188 155.000000 0 0 0 0
-50.462606 -12.467232 154.000000 0 0 0 0
-49.545104 -12.386276 153.000000 0 0 0 0
-48.635312 -12.305320 152.000000 0 0 0 0
-48.049345 -12.305320 152.000000 0 0 0 0
-47.151118 -12.224364 151.000000 0 0 0 0
-45.952197 -12.062452 149.000000 0 0 0 0
-45.073246 -11.981496 148.000000 0 0 0 0
-46.908250 -12.629144 156.000000 128 128 128 0
-46.010023 -12.548188 155.000000 128 128 128 0
-45.412490 -12.548188 155.000000 128 128 128 0
-44.814958 -12.548188 155.000000 128 128 128 0
-44.217425 -12.548188 155.000000 128 128 128 0
-43.619892 -12.548188 155.000000 128 128 128 0
-42.744796 -12.467232 154.000000 128 128 128 0
-43.245952 -12.791056 158.000000 128 0 0 0
-42.636854 -12.791056 158.000000 128 0 0 0
-42.027756 -12.791056 158.000000 128 0 0 0
-41.418658 -12.791056 158.000000 128 0 0 0
-40.809561 -12.791056 158.000000 128 0 0 0
-40.200463 -12.791056 158.000000 128 0 0 0
-39.591365 -12.791056 158.000000 128 0 0 0
-38.982267 -12.791056 158.000000 128 0 0 0
-38.373169 -12.791056 158.000000 128 0 0 0
-37.764071 -12.791056 158.000000 128 0 0 0
-37.154973 -12.791056 158.000000 128 0 0 0
-36.545875 -12.791056 158.000000 128 0 0 0
-35.936777 -12.791056 158.000000 128 0 0 0
-35.327679 -12.791056 158.000000 128 0 0 0
-34.718581 -12.791056 158.000000 128 0 0 0
-34.109483 -12.791056 158.000000 128 0 0 0
-33.500386 -12.791056 158.000000 128 0 0 0
-32.891288 -12.791056 158.000000 128 0 0 0
-32.282190 -12.791056 158.000000 128 0 0 0
-31.673092 -12.791056 158.000000 128 0 0 0
-31.063994 -12.791056 158.000000 128 0 0 0
-30.454896 -12.791056 158.000000 128 0 0 0
-29.845798 -12.791056 158.000000 128 0 0 0
-32.012336 -14.005397 173.000000 128 0 128 0
-31.345412 -14.005397 173.000000 128 0 128 0
-30.678489 -14.005397 173.000000 128 0 128 0
-30.011565 -14.005397 173.000000 128 0 128 0
-29.344641 -14.005397 173.000000 128 0 128 0
-28.677718 -14.005397 173.000000 128 0 128 0
-28.010794 -14.005397 173.000000 128 0 128 0
-27.343870 -14.005397 173.000000 128 0 128 0
-26.676947 -14.005397 173.000000 128 0 128 0
-26.010023 -14.005397 173.000000 128 0 128 0
-25.343099 -14.005397 173.000000 128 0 128 0
-24.676176 -14.005397 173.000000 128 0 128 0
-24.009252 -14.005397 173.000000 128 0 128 0
-23.342328 -14.005397 173.000000 128 0 128 0
-22.675405 -14.005397 173.000000 128 0 128 0
-22.008481 -14.005397 173.000000 128 0 128 0
-21.341557 -14.005397 173.000000 128 0 128 0
-20.674634 -14.005397 173.000000 128 0 128 0
-20.007710 -14.005397 173.000000 128 0 128 0
-19.340786 -14.005397 173.000000 128 0 128 0
-18.673863 -14.005397 173.000000 128 0 128 0
-18.111025 -14.086353 174.000000 128 0 128 0
-17.440247 -14.086353 174.000000 128 0 128 0
-16.769468 -14.086353 174.000000 128 0 128 0
-16.098689 -14.086353 174.000000 128 0 128 0
-14.009252 -12.791056 158.000000 128 0 0 0
-13.400154 -12.791056 158.000000 128 0 0 0
-12.791056 -12.791056 158.000000 128 0 0 0
-12.181958 -12.791056 158.000000 128 0 0 0
-11.572860 -12.791056 158.000000 128 0 0 0
-10.963763 -12.791056 158.000000 128 0 0 0
-10.354665 -12.791056 158.000000 128 0 0 0
-9.745567 -12.791056 158.000000 128 0 0 0
-9.136469 -12.791056 158.000000 128 0 0 0
-8.527371 -12.791056 158.000000 128 0 0 0
-7.918273 -12.791056 158.000000 128 0 0 0
-7.309175 -12.791056 158.000000 128 0 0 0
-6.700077 -12.791056 158.000000 128 0 0 0
-6.090979 -12.791056 158.000000 128 0 0 0
-5.481881 -12.791056 158.000000 128 0 0 0
-4.872783 -12.791056 158.000000 128 0 0 0
-4.263685 -12.791056 158.000000 128 0 0 0
-3.654588 -12.791056 158.000000 128 0 0 0
-3.045490 -12.791056 158.000000 128 0 0 0
-2.436392 -12.791056 158.000000 128 0 0 0
-1.827294 -12.791056 158.000000 128 0 0 0
-1.218196 -12.791056 158.000000 128 0 0 0
-0.609098 -12.791056 158.000000 128 0 0 0
0.000000 -12.791056 158.000000 128 0 0 0
0.609098 -12.791056 158.000000 128 0 0 0
1.218196 -12.791056 158.000000 128 0 0 0
1.827294 -12.791056 158.000000 128 0 0 0
2.436392 -12.791056 158.000000 128 0 0 0
3.045490 -12.791056 158.000000 128 0 0 0
3.654588 -12.791056 158.000000 128 0 0 0
4.263685 -12.791056 158.000000 128 0 0 0
4.872783 -12.791056 158.000000 128 0 0 0
5.481881 -12.791056 158.000000 128 0 0 0
6.090979 -12.791056 158.000000 128 0 0 0
6.700077 -12.791056 158.000000 128 0 0 0
7.355436 -12.872012 159.000000 128 0 0 0
7.968389 -12.872012 159.000000 128 0 0 0
8.581342 -12.872012 159.000000 128 0 0 0
9.194295 -12.872012 159.000000 128 0 0 0
9.807247 -12.872012 159.000000 128 0 0 0
10.420200 -12.872012 159.000000 128 0 0 0
11.033153 -12.872012 159.000000 128 0 0 0
11.646106 -12.872012 159.000000 128 0 0 0
12.259059 -12.872012 159.000000 128 0 0 0
12.872012 -12.872012 159.000000 128 0 0 0
13.484965 -12.872012 159.000000 128 0 0 0
14.097918 -12.872012 159.000000 128 0 0 0
14.710871 -12.872012 159.000000 128 0 0 0
15.323824 -12.872012 159.000000 128 0 0 0
15.936777 -12.872012 159.000000 128 0 0 0
16.549730 -12.872012 159.000000 128 0 0 0
17.162683 -12.872012 159.000000 128 0 0 0
17.775636 -12.872012 159.000000 128 0 0 0
18.388589 -12.872012 159.000000 128 0 0 0
19.001542 -12.872012 159.000000 128 0 0 0
19.614495 -12.872012 159.000000 128 0 0 0
20.227448 -12.872012 159.000000 128 0 0 0
19.267540 -11.900540 147.000000 0 128 0 0
19.969160 -11.981496 148.000000 0 128 0 0
20.817271 -12.143408 150.000000 0 128 0 0
21.538165 -12.224364 151.000000 0 128 0 0
22.413261 -12.386276 153.000000 0 128 0 0
23.153431 -12.467232 154.000000 0 128 0 0
24.055513 -12.629144 156.000000 0 128 0 0
24.814958 -12.710100 157.000000 0 128 0 0
25.582113 -12.791056 158.000000 0 128 0 0
26.522745 -12.952968 160.000000 0 128 0 0
27.309175 -13.033924 161.000000 0 128 0 0
28.103315 -13.114880 162.000000 0 128 0 0
28.905166 -13.195837 163.000000 0 128 0 0
29.714726 -13.276793 164.000000 0 128 0 0
30.717039 -13.438705 166.000000 0 128 0 0
31.545875 -13.519661 167.000000 0 128 0 0
32.382421 -13.600617 168.000000 0 128 0 0
33.226677 -13.681573 169.000000 0 128 0 0
34.078643 -13.762529 170.000000 0 128 0 0
34.938319 -13.843485 171.000000 0 128 0 0
35.805705 -13.924441 172.000000 0 128 0 0
36.680802 -14.005397 173.000000 0 128 0 0
37.563608 -14.086353 174.000000 0 128 0 0
38.454125 -14.167309 175.000000 0 128 0 0
39.128759 -14.167309 175.000000 0 128 0 0
36.846569 -13.114880 162.000000 0 0 0 0
37.933693 -13.276793 164.000000 0 0 0 0
38.801079 -13.357749 165.000000 0 0 0 0
39.676176 -13.438705 166.000000 0 0 0 0
40.558982 -13.519661 167.000000 0 0 0 0
41.696222 -13.681573 169.000000 0 0 0 0
42.848882 -13.843485 171.000000 0 0 0 0
44.016962 -14.005397 173.000000 0 0 0 0
44.942174 -14.086353 174.000000 0 0 0 0
46.137240 -14.248265 176.000000 0 0 0 0
47.081727 -14.329221 177.000000 0 0 0 0
48.033924 -14.410177 178.000000 0 0 0 0
48.993832 -14.491133 179.000000 0 0 0 0
49.961449 -14.572089 180.000000 0 0 0 0
50.936777 -14.653045 181.000000 0 0 0 0
51.919815 -14.734002 182.000000 0 0 0 0
52.910563 -14.814958 183.000000 0 0 0 0
53.909021 -14.895914 184.000000 0 0 0 0
54.915189 -14.976870 185.000000 0 0 0 0
55.628373 -14.976870 185.000000 0 0 0 0
56.646106 -15.057826 186.000000 0 0 0 0
57.671550 -15.138782 187.000000 0 0 0 0
58.704703 -15.219738 188.000000 0 0 0 0
60.693909 -15.543562 192.000000 0 128 0 0
61.114109 -15.462606 191.000000 64 0 0 0
61.850424 -15.462606 191.000000 64 0 0 0
62.914418 -15.543562 192.000000 64 0 0 0
63.654588 -15.543562 192.000000 64 0 0 0
64.394757 -15.543562 192.000000 64 0 0 0
65.134927 -15.543562 192.000000 64 0 0 0
66.218196 -15.624518 193.000000 64 0 0 0
66.962221 -15.624518 193.000000 64 0 0 0
67.706245 -15.624518 193.000000 64 0 0 0
68.450270 -15.624518 193.000000 64 0 0 0
69.552814 -15.705474 194.000000 64 0 0 0
70.300694 -15.705474 194.000000 64 0 0 0
71.048574 -15.705474 194.000000 64 0 0 0
-111.642251 -13.955281 181.000000 0 0 0 0
-116.461064 -14.649190 190.000000 0 0 0 0
-115.119507 -14.572089 189.000000 0 0 0 0
-121.048574 -15.420200 200.000000 192 0 0 0
-120.277564 -15.420200 200.000000 192 0 0 0
-119.506554 -15.420200 200.000000 192 0 0 0
-118.141866 -15.343099 199.000000 192 0 0 0
-117.374711 -15.343099 199.000000 192 0 0 0
-116.607556 -15.343099 199.000000 192 0 0 0
-115.258288 -15.265998 198.000000 192 0 0 0
-114.494988 -15.265998 198.000000 192 0 0 0
-113.157286 -15.188897 197.000000 192 0 0 0
-112.397841 -15.188897 197.000000 192 0 0 0
-111.071704 -15.111796 196.000000 192 0 0 0
-105.250578 -14.417887 187.000000 0 0 0 0
-103.970702 -14.340786 186.000000 0 0 0 0
-102.143408 -14.186584 184.000000 0 0 0 0
-100.882806 -14.109483 183.000000 0 0 0 0
-100.177332 -14.109483 183.000000 0 0 0 0
-98.928296 -14.032382 182.000000 0 0 0 0
-98.226677 -14.032382 182.000000 0 0 0 0
-96.989206 -13.955281 181.000000 0 0 0 0
-96.291442 -13.955281 181.000000 0 0 0 0
-95.065536 -13.878180 180.000000 0 0 0 0
-94.371627 -13.878180 180.000000 0 0 0 0
-93.677718 -13.878180 180.000000 0 0 0 0
-92.983809 -13.878180 180.000000 0 0 0 0
-92.289900 -13.878180 180.000000 0 0 0 0
-91.595991 -13.878180 180.000000 0 0 0 0
-90.902082 -13.878180 180.000000 0 0 0 0
-90.208173 -13.878180 180.000000 0 0 0 0
-89.514264 -13.878180 180.000000 0 0 0 0
-88.820355 -13.878180 180.000000 0 0 0 0
-88.616037 -13.955281 181.000000 0 0 0 0
-87.918273 -13.955281 181.000000 0 0 0 0
-87.220509 -13.955281 181.000000 0 0 0 0
-86.522745 -13.955281 181.000000 0 0 0 0
-85.824981 -13.955281 181.000000 0 0 0 0
-85.127217 -13.955281 181.000000 0 0 0 0
-84.429453 -13.955281 181.000000 0 0 0 0
-83.731689 -13.955281 181.000000 0 0 0 0
-82.575173 -13.878180 180.000000 0 0 0 0
-81.881264 -13.878180 180.000000 0 0 0 0
-81.187355 -13.878180 180.000000 0 0 0 0
-80.046261 -13.801079 179.000000 0 0 0 0
-79.356207 -13.801079 179.000000 0 0 0 0
-78.666153 -13.801079 179.000000 0 0 0 0
-77.540478 -13.723978 178.000000 0 0 0 0
-75.990748 -13.569776 176.000000 0 0 0 0
-74.456438 -13.415574 174.000000 0 0 0 0
-74.209715 -13.492675 175.000000 192 0 0 0
-73.114880 -13.415574 174.000000 192 0 0 0
-72.027756 -13.338473 173.000000 192 0 0 0
-70.948342 -13.261372 172.000000 192 0 0 0
-69.876638 -13.184271 171.000000 192 0 0 0
-68.812645 -13.107170 170.000000 192 0 0 0
-67.756361 -13.030069 169.000000 192 0 0 0
-66.707787 -12.952968 168.000000 192 0 0 0
-65.666924 -12.875867 167.000000 192 0 0 0
-65.023130 -12.875867 167.000000 192 0 0 0
-63.993832 -12.798766 166.000000 192 0 0 0
-62.972244 -12.721665 165.000000 192 0 0 0
-61.580571 -12.567463 163.000000 0 0 0 0
-60.952197 -12.567463 163.000000 0 0 0 0
-60.323824 -12.567463 163.000000 0 0 0 0
-59.329221 -12.490362 162.000000 0 0 0 0
-58.342328 -12.413261 161.000000 0 0 0 0
-57.721665 -12.413261 161.000000 0 0 0 0
-57.101002 -12.413261 161.000000 0 0 0 0
-56.480339 -12.413261 161.000000 0 0 0 0
-55.512722 -12.336160 160.000000 0 0 0 0
-54.552814 -12.259059 159.000000 0 0 0 0
-53.600617 -12.181958 158.000000 0 0 0 0
-52.320740 -12.027756 156.000000 0 0 0 0
-51.387818 -11.950655 155.000000 0 0 0 0
-50.462606 -11.873554 154.000000 0 0 0 0
-49.545104 -11.796453 153.000000 0 0 0 0
-48.635312 -11.719352 152.000000 0 0 0 0
-48.049345 -11.719352 152.000000 0 0 0 0
-46.838859 -11.565150 150.000000 0 0 0 0
-45.952197 -11.488049 149.000000 0 0 0 0
-45.073246 -11.410948 148.000000 0 0 0 0
-44.202005 -11.333847 147.000000 0 0 0 0
-46.010023 -11.950655 155.000000 128 128 128 0
-45.412490 -11.950655 155.000000 128 128 128 0
-44.814958 -11.950655 155.000000 128 128 128 0
-44.217425 -11.950655 155.000000 128 128 128 0
-43.619892 -11.950655 155.000000 128 128 128 0
-42.744796 -11.873554 154.000000 128 128 128 0
-43.245952 -12.181958 158.000000 128 0 0 0
-42.636854 -12.181958 158.000000 128 0 0 0
-42.027756 -12.181958 158.000000 128 0 0 0
-41.418658 -12.181958 158.000000 128 0 0 0
-40.809561 -12.181958 158.000000 128 0 0 0
-40.200463 -12.181958 158.000000 128 0 0 0
-39.591365 -12.181958 158.000000 128 0 0 0
-38.982267 -12.181958 158.000000 128 0 0 0
-38.373169 -12.181958 158.000000 128 0 0 0
-37.764071 -12.181958 158.000000 128 0 0 0
-37.154973 -12.181958 158.000000 128 0 0 0
-36.545875 -12.181958 158.000000 128 0 0 0
-35.936777 -12.181958 158.000000 128 0 0 0
-35.327679 -12.181958 158.000000 128 0 0 0
-34.718581 -12.181958 158.000000 128 0 0 0
-34.109483 -12.181958 158.000000 128 0 0 0
-33.500386 -12.181958 158.000000 128 0 0 0
-32.891288 -12.181958 158.000000 128 0 0 0
-32.282190 -12.181958 158.000000 128 0 0 0
-31.673092 -12.181958 158.000000 128 0 0 0
-31.063994 -12.181958 158.000000 128 0 0 0
-30.454896 -12.181958 158.000000 128 0 0 0
-29.845798 -12.181958 158.000000 128 0 0 0
-32.197379 -13.415574 174.000000 128 0 128 0
-31.526600 -13.415574 174.000000 128 0 128 0
-30.855821 -13.415574 174.000000 128 0 128 0
-30.185042 -13.415574 174.000000 128 0 128 0
-29.514264 -13.415574 174.000000 128 0 128 0
-28.843485 -13.415574 174.000000 128 0 128 0
-28.172706 -13.415574 174.000000 128 0 128 0
-27.501928 -13.415574 174.000000 128 0 128 0
-26.831149 -13.415574 174.000000 128 0 128 0
-26.160370 -13.415574 174.000000 128 0 128 0
-25.489591 -13.415574 174.000000 128 0 128 0
-24.818813 -13.415574 174.000000 128 0 128 0
-24.148034 -13.415574 174.000000 128 0 128 0
-23.477255 -13.415574 174.000000 128 0 128 0
-22.806476 -13.415574 174.000000 128 0 128 0
-22.135698 -13.415574 174.000000 128 0 128 0
-21.464919 -13.415574 174.000000 128 0 128 0
-20.794140 -13.415574 174.000000 128 0 128 0
-20.123362 -13.415574 174.000000 128 0 128 0
-19.452583 -13.415574 174.000000 128 0 128 0
-18.781804 -13.415574 174.000000 128 0 128 0
-18.111025 -13.415574 174.000000 128 0 128 0
-17.440247 -13.415574 174.000000 128 0 128 0
-16.769468 -13.415574 174.000000 128 0 128 0
-16.098689 -13.415574 174.000000 128 0 128 0
-14.009252 -12.181958 158.000000 128 0 0 0
-13.400154 -12.181958 158.000000 128 0 0 0
-12.791056 -12.181958 158.000000 128 0 0 0
-12.181958 -12.181958 158.000000 128 0 0 0
-11.572860 -12.181958 158.000000 128 0 0 0
-10.963763 -12.181958 158.000000 128 0 0 0
-10.354665 -12.181958 158.000000 128 0 0 0
-9.745567 -12.181958 158.000000 128 0 0 0
-9.136469 -12.181958 158.000000 128 0 0 0
-8.527371 -12.181958 158.000000 128 0 0 0
-7.918273 -12.181958 158.000000 128 0 0 0
-7.309175 -12.181958 158.000000 128 0 0 0
-6.700077 -12.181958 158.000000 128 0 0 0
-6.090979 -12.181958 158.000000 128 0 0 0
-5.481881 -12.181958 158.000000 128 0 0 0
-4.872783 -12.181958 158.000000 128 0 0 0
-4.263685 -12.181958 158.000000 128 0 0 0
-3.654588 -12.181958 158.000000 128 0 0 0
-3.045490 -12.181958 158.000000 128 0 0 0
-2.436392 -12.181958 158.000000 128 0 0 0
-1.827294 -12.181958 158.000000 128 0 0 0
-1.218196 -12.181958 158.000000 128 0 0 0
-0.609098 -12.181958 158.000000 128 0 0 0
0.000000 -12.181958 158.000000 128 0 0 0
0.609098 -12.181958 158.000000 128 0 0 0
1.218196 -12.181958 158.000000 128 0 0 0
1.827294 -12.181958 158.000000 128 0 0 0
2.436392 -12.181958 158.000000 128 0 0 0
3.045490 -12.181958 158.000000 128 0 0 0
3.654588 -12.181958 158.000000 128 0 0 0
4.263685 -12.181958 158.000000 128 0 0 0
4.872783 -12.181958 158.000000 128 0 0 0
5.481881 -12.181958 158.000000 128 0 0 0
6.090979 -12.181958 158.000000 128 0 0 0
6.700077 -12.181958 158.000000 128 0 0 0
7.309175 -12.181958 158.000000 128 0 0 0
7.918273 -12.181958 158.000000 128 0 0 0
8.527371 -12.181958 158.000000 128 0 0 0
9.136469 -12.181958 158.000000 128 0 0 0
